# .PCD v0.7 - Point Cloud Data file format
VERSION 0.7
FIELDS x y z rgb
SIZE 4 4 4 4
TYPE F F F U
COUNT 1 1 1 1
WIDTH 1050
HEIGHT 1
VIEWPOINT 0 0 0 1 0 0 0
POINTS 1050
DATA ascii
0.042437613 0.12936538 0.49638459 4294836217
0.046127148 0.12979095 0.49760002 4294770681
0.054567471 0.12981665 0.49800003 4294836217
0.057671055 0.12937741 0.49747062 4294770681
0.060748734 0.129528 0.49780002 4294770681
0.1090419 0.12948148 0.49788892 4294770681
0.11261964 0.12876971 0.49676928 4294770681
0.11762258 0.12872207 0.49687997 4294770681
0.12248018 0.12890975 0.49747828 4294770681
0.12741834 0.12920579 0.49823537 4294770681
-0.10643876 0.13118076 0.49555555 4294836217
-0.10271437 0.13257915 0.49587807 4294836217
-0.097994119 0.13245577 0.49683335 4294836217
-0.093432091 0.13088414 0.49714285 4294836217
-0.076996967 0.1310779 0.49668178 4294770681
-0.072824746 0.13111182 0.49664992 4294836217
-0.067409672 0.13160944 0.49783337 4294836217
-0.063445486 0.13121948 0.49650005 4294836217
-0.04100351 0.13020933 0.49500003 4294836217
-0.038502801 0.13050976 0.49657148 4294836217
-0.032545812 0.1311274 0.49700007 4294836217
-0.027589433 0.13209887 0.49862507 4294836217
0.0027161806 0.13025317 0.49516669 4294836217
0.007407607 0.13038468 0.49566671 4294836217
0.01305757 0.13087507 0.49661535 4294836217
0.017996769 0.13161762 0.49662504 4294836217
0.022509137 0.13156793 0.49681249 4294836217
0.027359385 0.13121194 0.4969655 4294836217
0.031043008 0.13047187 0.49650005 4294836217
0.044090685 0.13020933 0.49500003 4294901753
0.04771924 0.13063923 0.49690911 4294836217
0.052354887 0.13066086 0.49688891 4294770681
0.057362258 0.13020933 0.49500003 4294901753
0.062901504 0.13115075 0.4962 4294770681
0.067446992 0.13237658 0.49677786 4294770681
0.072886921 0.13215581 0.49707144 4294770681
0.077425428 0.13221738 0.49683332 4294770681
0.082538143 0.13219681 0.49785718 4294770681
0.087862924 0.13263711 0.49750003 4294770681
0.092459038 0.13382906 0.49755001 4294770681
0.097040042 0.1327548 0.49831256 4294770681
0.102704 0.13102728 0.49624997 4294770681
0.10681732 0.13089789 0.49636841 4294770681
0.11747468 0.13020933 0.49500003 4294770681
0.1227833 0.13052237 0.49500003 4294770681
0.12762719 0.13124306 0.49623808 4294770681
-0.10150626 0.13568762 0.49500003 4294770681
-0.12644096 0.12901527 0.50099999 4294836217
-0.11169802 0.12938939 0.50400001 4294901753
-0.10585703 0.12940583 0.50174999 4294770681
-0.10423142 0.12979719 0.5025 4294836217
-0.096559733 0.12971252 0.50339997 4294770681
-0.091958568 0.12919408 0.50255561 4294770681
-0.08712671 0.12896726 0.50133336 4294770681
-0.082355097 0.12897347 0.50199997 4294770681
-0.077547856 0.12928465 0.50224 4294770681
-0.072771311 0.1290769 0.50279176 4294836217
-0.069391154 0.12943611 0.50366664 4294836217
-0.062708974 0.12994353 0.5 4294901753
-0.056400448 0.12915301 0.5 4294836217
-0.050492652 0.12899098 0.50400001 4294836217
-0.046856999 0.12840854 0.50231254 4294836217
-0.042473778 0.12857568 0.50200003 4294836217
-0.038013745 0.12916291 0.50247371 4294836217
-0.034923162 0.12992793 0.50300002 4294836217
-0.017107908 0.12938939 0.50400001 4294836217
0.0043191621 0.12678146 0.5 4294836217
0.0077185179 0.12763658 0.50114286 4294836217
0.011157946 0.1290767 0.50162506 4294836217
0.02457417 0.12992793 0.50300002 4294836217
0.027431548 0.12963237 0.50206667 4294836217
0.032056812 0.12956788 0.50272727 4294836217
0.038405646 0.12949012 0.50233334 4294836217
0.042634871 0.12908603 0.50150001 4294836217
0.047559027 0.12912318 0.50238103 4294836217
0.052658338 0.12919548 0.50280964 4294836217
0.057136945 0.12869851 0.5019334 4294770681
0.061862621 0.12927952 0.50245458 4294770681
0.073110394 0.12938939 0.50400001 4294770681
0.077592619 0.12963416 0.50354552 4294770681
0.081138276 0.1295689 0.5036667 4294770681
0.089478411 0.1295689 0.5036667 4294770681
0.09266834 0.12932792 0.50337511 4294770681
0.09576986 0.12948306 0.50333333 4294770681
0.10864282 0.12940507 0.50185722 4294770681
0.11240508 0.12808156 0.50200009 4294770681
0.11746427 0.12779072 0.50253844 4294770681
0.12265969 0.12764584 0.50207138 4294770681
0.12717068 0.12788591 0.50189477 4294770681
-0.12799397 0.13057238 0.50119996 4294836217
-0.11169802 0.13018623 0.50400001 4294770681
-0.10235309 0.13060997 0.50333333 4294770681
-0.097776115 0.13085935 0.50170004 4294836217
-0.094045065 0.13046744 0.50100005 4294836217
-0.071356021 0.13056755 0.50050002 4294836217
-0.067424908 0.13076575 0.50194997 4294770681
-0.063463144 0.13029149 0.50287503 4294836217
-0.036364589 0.13059945 0.50099999 4294836217
-0.032583918 0.13077994 0.50199997 4294836217
-0.027634084 0.13139963 0.50138462 4294836217
-0.02227735 0.13223907 0.50243753 4294836217
-0.017803852 0.13186163 0.50372213 4294836217
0.013776484 0.1306518 0.50185722 4294836217
0.017460655 0.13151988 0.50214285 4294836217
0.022532051 0.13089772 0.50171429 4294836217
0.025266603 0.13020341 0.50100005 4294836217
0.049365979 0.13020341 0.50100005 4294901753
0.051341336 0.13020341 0.50100005 4294901753
0.064293966 0.13035466 0.50220001 4294770681
0.06780678 0.13119401 0.50218189 4294770681
0.072526723 0.13111044 0.50250006 4294770681
0.077435598 0.13114992 0.50190008 4294770681
0.082646213 0.1310239 0.50230432 4294770681
0.087388784 0.13122638 0.50210345 4294770681
0.092627801 0.1317112 0.50128132 4294770681
0.097218037 0.13157083 0.50150001 4294770681
0.10369685 0.13085884 0.50200003 4294770681
0.10593114 0.13029005 0.50133342 4294770681
-0.12779178 0.12859182 0.50675005 4294770681
-0.11014619 0.12870285 0.50600004 4294836217
-0.10731699 0.12787962 0.50772411 4294770681
-0.10257422 0.12869513 0.50765628 4294836217
-0.097373128 0.12917963 0.50630772 4294770681
-0.092985854 0.12867011 0.50678945 4294770680
-0.087419577 0.12856358 0.50631821 4294770679
-0.082578346 0.12807943 0.50660002 4294836214
-0.077371188 0.12760186 0.50622225 4294836213
-0.072483227 0.1275488 0.50640005 4294836215
-0.067616872 0.12868816 0.50699997 4294836216
-0.064576611 0.1297407 0.50849998 4294836217
-0.055408757 0.12986827 0.509 4294836217
-0.052310001 0.12898056 0.50683331 4294836217
-0.047447994 0.12715498 0.5063889 4294836215
-0.042976085 0.12680724 0.50726092 4294836213
-0.03718701 0.12797789 0.50683343 4294836215
-0.032554708 0.1289182 0.50746161 4294836216
-0.028093589 0.12957142 0.50862497 4294836217
-0.021774121 0.12896237 0.50713336 4294836216
-0.017505221 0.12773176 0.50612509 4294836214
-0.014354269 0.12765007 0.505 4294836216
0.0043796306 0.12775481 0.50700003 4294836217
0.0079800673 0.12775481 0.50700003 4294836217
0.012519854 0.12926273 0.50741667 4294836217
0.015234175 0.12986827 0.509 4294836217
0.024243874 0.1295328 0.50716668 4294836217
0.027555954 0.12863174 0.50677776 4294836217
0.032360971 0.12895957 0.50729412 4294836217
0.037193604 0.12956311 0.50649995 4294836217
0.04277413 0.12886468 0.50716668 4294836217
0.047588721 0.12823893 0.50733334 4294836217
0.05250239 0.12779501 0.50700003 4294836217
0.057224981 0.12789664 0.50693333 4294836217
0.06239168 0.12877332 0.50733334 4294770681
0.067401759 0.12985764 0.50781816 4294770681
0.072804913 0.12892769 0.50621432 4294770681
0.077668995 0.12817053 0.50663644 4294770681
0.082523212 0.1286184 0.5069524 4294770681
0.087731682 0.12883787 0.50660878 4294770681
0.09185712 0.12789662 0.50682354 4294770681
0.097521454 0.1288566 0.50618184 4294770681
0.10921029 0.12987979 0.50800008 4294770681
0.1126705 0.12839203 0.50675005 4294770681
0.1177615 0.12731002 0.50728571 4294770681
0.12224551 0.1271828 0.50669235 4294770681
0.12762049 0.12732121 0.50633335 4294770681
-0.061937466 0.13068166 0.50825 4294836217
-0.055408757 0.13067302 0.509 4294836217
-0.054098122 0.1304163 0.50800002 4294836217
-0.03187621 0.13044456 0.505 4294836217
-0.028013544 0.13048312 0.50722224 4294836217
-0.024055319 0.1304163 0.50800002 4294836217
-0.015787881 0.13379793 0.505 4294836217
-0.014354269 0.1324406 0.505 4294836217
0.014346357 0.13030207 0.50600004 4294836217
0.017667582 0.13095838 0.50716674 4294836217
0.021667201 0.13074243 0.50739992 4294836217
0.037016887 0.13044456 0.505 4294836217
0.067990668 0.13052124 0.50633335 4294770681
0.098441452 0.1305737 0.50550002 4294770681
0.10229336 0.13119659 0.50656247 4294770681
0.10653224 0.13069156 0.50720006 4294770681
-0.017141851 0.13523509 0.505 4294836217
-0.014204764 0.03240665 0.514 4287995557
-0.033302739 0.1248591 0.5126667 4294835937
-0.12844063 0.12806235 0.51328576 4294836217
-0.1157153 0.12805009 0.51300001 4294836217
-0.11490623 0.12805009 0.51300001 4294836217
-0.10538655 0.1268981 0.51000005 4294770681
-0.1026786 0.12674785 0.51211119 4294770681
-0.09723565 0.12793288 0.51113337 4294770680
-0.09250579 0.12784116 0.51216674 4294770676
-0.087416619 0.12779118 0.51181829 4294770673
-0.08393684 0.12755716 0.51225001 4294836209
-0.077332728 0.12697624 0.51209092 4294770673
-0.072547331 0.12709819 0.51230776 4294836212
-0.067390554 0.12782137 0.51220006 4294836215
-0.063978799 0.12935309 0.51242864 4294836216
-0.052793317 0.12904172 0.51257145 4294836216
-0.048056267 0.12739259 0.51200002 4294836212
-0.041019507 0.12684964 0.51225001 4294836209
-0.03719157 0.12643939 0.51177788 4294836206
-0.032378167 0.12659837 0.51137501 4294770670
-0.027513035 0.12837532 0.5122413 4294770676
-0.022468714 0.12778202 0.51185721 4294770673
-0.018110553 0.12621255 0.51142859 4294836200
-0.014162128 0.12792531 0.51250005 4294836210
0.0088640274 0.12820524 0.51200002 4294836217
0.01259968 0.12824902 0.51184213 4294836217
0.017218869 0.12865786 0.51263636 4294836217
0.022481719 0.12870596 0.51273918 4294836217
0.026658071 0.12771496 0.51253849 4294836217
0.033354435 0.12788293 0.51164293 4294836217
0.037525106 0.12818559 0.51193333 4294836217
0.042305127 0.12758847 0.51200002 4294836217
0.04744323 0.12706985 0.51207709 4294836217
0.05236055 0.12684502 0.51243752 4294836217
0.057928961 0.12716623 0.51173341 4294770681
0.062770799 0.1276969 0.51228577 4294770681
0.067365639 0.12879045 0.51245826 4294770681
0.072699018 0.1284824 0.51281822 4294770681
0.077403672 0.12721269 0.51176935 4294770681
0.082552373 0.12765276 0.51257145 4294770681
0.087519385 0.12765583 0.51168424 4294770681
0.092470057 0.12703143 0.51216674 4294770681
0.096838251 0.127969 0.51177782 4294770681
0.10280357 0.12930016 0.51233339 4294770681
0.10738702 0.12930679 0.51345456 4294770681
0.11241664 0.12881427 0.51235718 4294770681
0.11733162 0.12733966 0.51210004 4294770681
0.12282213 0.12695424 0.51158339 4294770681
0.12680516 0.12728298 0.51220006 4294770681
-0.062102564 0.13045257 0.51200002 4294836217
-0.058358256 0.13060176 0.51245457 4294836217
-0.024148442 0.13012341 0.51000005 4294836217
0.018073829 0.13025616 0.51142865 4294836217
0.021089189 0.13023578 0.51150006 4294836217
0.099719562 0.13012341 0.51000005 4294770681
0.10249075 0.13050559 0.51044446 4294770681
0.10690784 0.13039006 0.51153857 4294770681
-0.028257987 0.024926586 0.51900005 4294574077
-0.030508948 0.02738826 0.51900005 4292205274
-0.027592789 0.027951447 0.51884848 4292600032
-0.022354601 0.028341796 0.51811111 4293257705
-0.01751229 0.028037883 0.5158667 4293719025
-0.01263052 0.028161347 0.51599997 4293851127
-0.007761735 0.027913727 0.51769698 4294245627
-0.0027054206 0.028134625 0.51851428 4294377213
0.0030218984 0.028001508 0.51849985 4294508541
0.0077453563 0.02775293 0.51816666 4294573821
0.011215715 0.02857657 0.51890916 4294311422
-0.030304315 0.031491049 0.51900005 4288652966
-0.027371852 0.03263934 0.51769441 4289376691
-0.022426846 0.03257221 0.51663893 4287929503
-0.017495587 0.032494213 0.51538891 4287007891
-0.012406873 0.032475289 0.51509386 4290957008
-0.0077490192 0.032533333 0.51602775 4293325297
-0.0024623517 0.032567684 0.51657152 4289050042
0.0028352158 0.032593936 0.5169723 4288788929
0.007735264 0.032624125 0.51744449 4283721851
0.01120256 0.03247444 0.51878577 4287667882
-0.027096601 0.037471093 0.51822585 4283587944
-0.022436447 0.037491214 0.5168612 4290758603
-0.017506773 0.037408054 0.51572233 4287667620
-0.012609488 0.037359335 0.5150556 4291153876
-0.0077423006 0.037397705 0.5155834 4291746523
-0.0024599291 0.037429452 0.51602393 4286814888
0.0028351734 0.037496302 0.51694459 4278924118
0.0077404645 0.037556898 0.51777774 4279321449
0.010895123 0.037781999 0.51900005 4279322222
-0.025938811 0.042021547 0.51900005 4279836720
-0.022488974 0.042491481 0.5180555 4288192423
-0.017534973 0.042368744 0.51655561 4289443514
-0.012632434 0.042322531 0.51599997 4281942869
-0.0077496311 0.042322531 0.51599997 4289707457
-0.002460846 0.042359982 0.51645249 4286550945
0.0028386163 0.042441569 0.51744437 4279448657
0.0076277931 0.042417198 0.51832354 4279450454
0.01062228 0.04092747 0.51900005 4279058785
-0.025393123 0.045850821 0.51900005 4283652194
-0.022493798 0.047415685 0.51816666 4290298051
-0.017549185 0.047308933 0.51700014 4289838016
-0.012655731 0.047304049 0.51694459 4287074714
-0.0077624545 0.047296762 0.5168612 4290891216
-0.0024642819 0.047307026 0.5169763 4286419356
0.0028433187 0.047423586 0.51824993 4280434261
0.0067751794 0.047122676 0.51900005 4280040786
-0.022205973 0.052198395 0.51854837 4283716701
-0.017596018 0.052354626 0.51838887 4283322200
-0.012678675 0.052301601 0.51786107 4289969088
-0.0077675455 0.052230664 0.51716679 4293390576
-0.0024665955 0.052276958 0.51761901 4289181887
0.0023730388 0.051907681 0.51865381 4284775308
0.0057110884 0.050363891 0.51900005 4279049522
-0.021095829 0.055492382 0.51900005 4290824911
-0.018681159 0.055451356 0.51900005 4290693325
-0.012202027 0.057098519 0.51867861 4291680735
-0.007781249 0.057240862 0.51811099 4293718773
-0.0032284914 0.056754563 0.51851845 4291877341
-0.011641787 0.0603747 0.51900005 4285364619
-0.0077946875 0.06062087 0.51900005 4292469221
-0.0049298261 0.060620867 0.51900005 4294311422
-0.031289089 0.12488526 0.51500005 4294769883
0.048001204 0.12453029 0.51845461 4294836217
0.052141014 0.12447175 0.51855558 4294836217
0.059619099 0.12479378 0.51800001 4294770681
0.060844529 0.12479378 0.51800001 4294770681
-0.12833545 0.12742509 0.5172857 4294770681
-0.12099764 0.12962981 0.51900005 4294836217
-0.11800346 0.12862653 0.51754552 4294836217
-0.10077405 0.12702516 0.51625001 4294770680
-0.097568974 0.12764272 0.51760006 4294770677
-0.093290597 0.12780613 0.51877785 4294770673
-0.087120637 0.12735075 0.51675004 4294836208
-0.083968736 0.12720124 0.51779997 4294836209
-0.077056602 0.12657067 0.5169 4294770672
-0.07235422 0.12655123 0.5166924 4294770673
-0.067046806 0.12704636 0.51717651 4294770672
-0.062616974 0.12826818 0.51710355 4294770675
-0.057666074 0.12929155 0.51700008 4294836215
-0.053019509 0.12891214 0.51700002 4294836214
-0.047868509 0.12758987 0.51716667 4294770671
-0.042445023 0.12681343 0.51733333 4294836201
-0.038844425 0.12656248 0.51720011 4294770662
-0.030380422 0.12558976 0.51566672 4294835935
-0.027223799 0.12663808 0.51629406 4294770404
-0.022612093 0.12676491 0.5173077 4294770659
-0.019179936 0.12618765 0.51700002 4294836193
-0.012632434 0.12879893 0.51600003 4294836210
0.0048925565 0.12995803 0.51900005 4294836217
0.0078181867 0.12822749 0.51765001 4294836216
0.012621362 0.12703076 0.51711124 4294901752
0.017704332 0.12666428 0.51752383 4294901753
0.022391846 0.12652256 0.51670831 4294901753
0.027062725 0.12658937 0.51620007 4294836217
0.031934701 0.12686817 0.51616663 4294836217
0.037925277 0.1259844 0.5165264 4294836217
0.042559758 0.12558019 0.51719999 4294836217
0.047432277 0.12560906 0.5166924 4294836217
0.052945368 0.12576343 0.5166471 4294836217
0.057356779 0.12578742 0.51682615 4294770681
0.062210806 0.12593269 0.51631588 4294770681
0.068188421 0.12680565 0.51670003 4294770681
0.072290033 0.12740731 0.51691306 4294770681
0.07715442 0.12685132 0.51726669 4294770681
0.082691833 0.12688904 0.51720011 4294770681
0.08755476 0.12693934 0.51721436 4294770681
0.092334382 0.12630329 0.51706249 4294770681
0.09702196 0.12726404 0.51745456 4294770681
0.10447314 0.12773709 0.51600009 4294770681
0.1078391 0.12771232 0.51656526 4294770681
0.11237825 0.12764169 0.5172593 4294770681
0.1174404 0.12678894 0.51771438 4294770681
0.12249328 0.12624851 0.51705885 4294770681
0.12697671 0.12704502 0.51750004 4294770681
-0.12157062 0.1307786 0.51900005 4294770681
-0.060646661 0.13002264 0.51600003 4294836217
-0.05646801 0.13058491 0.51500005 4294836217
0.0057000839 0.13052662 0.51800001 4294836217
-0.031592868 0.024974613 0.52000004 4294508028
-0.029542593 0.024974613 0.52000004 4294574077
0.014176644 0.024027035 0.52175003 4294770683
0.017028974 0.024154002 0.523 4294770683
-0.035876852 0.027169235 0.52266663 4291874511
-0.033004969 0.02772921 0.52062082 4291809746
-0.025852103 0.026207823 0.52000004 4293915635
-0.0016588885 0.026125606 0.52000004 4294639612
0.0016215473 0.026207823 0.52000004 4294639612
0.013403846 0.027249837 0.52028579 4294310907
0.017547438 0.027357763 0.52224326 4294375929
-0.035934046 0.032177933 0.52349997 4283914080
-0.032681324 0.032827623 0.52127284 4288257954
0.013635126 0.032957986 0.52036375 4285430149
0.017198004 0.032094151 0.52265382 4282401102
-0.035807624 0.036742352 0.52366674 4288454556
-0.032473475 0.037574779 0.52170593 4286481544
-0.029378572 0.038457699 0.52000004 4279574575
0.013303869 0.037720457 0.52066678 4279518825
0.016302466 0.037045829 0.52346158 4280764254
-0.032359961 0.04224908 0.52274197 4281612352
-0.028269665 0.042963132 0.5204584 4279245353
0.0098226378 0.044294886 0.52000004 4280239453
0.012622045 0.042689011 0.52146679 4279779932
0.015948614 0.040329728 0.52366668 4284320425
-0.031405885 0.046977293 0.52371436 4286020732
-0.027699545 0.047826294 0.52158821 4284573038
0.0090037091 0.048051864 0.52006251 4279252299
0.011595096 0.047832198 0.52200001 4280963180
-0.030844186 0.052257478 0.52400011 4288586404
-0.027594034 0.052707039 0.52188885 4289638835
-0.024457918 0.05358506 0.52000004 4285033843
0.0040818742 0.053749491 0.52000004 4292537842
0.0078419605 0.052642476 0.52065724 4285630873
0.012483106 0.052838884 0.52293754 4285369763
-0.030596264 0.055819873 0.52400005 4292532953
-0.02733434 0.057445567 0.52270001 4289376954
-0.022787616 0.057771489 0.52081251 4289904327
-0.017479055 0.057754111 0.52000022 4290957786
-0.014473092 0.058168486 0.52000004 4291088859
-0.0011122618 0.058431055 0.52020001 4290890962
0.0028583342 0.05756104 0.52099997 4294246142
0.0078107831 0.057726581 0.5225001 4288195771
0.01177342 0.057256833 0.52366674 4284382615
-0.025832132 0.061382998 0.52375007 4279309869
-0.022509858 0.062493116 0.52227271 4279970622
-0.017664259 0.062425628 0.52036124 4280365637
-0.012902318 0.062686935 0.52000022 4280495426
-0.0078112204 0.063214406 0.52008349 4291482325
-0.0023574617 0.062536865 0.52060014 4289903554
0.0028658202 0.062665619 0.52236116 4290824659
0.0075938753 0.062624827 0.52353126 4289114301
0.010724613 0.060790651 0.52400005 4291814386
-0.02094157 0.065995753 0.52366668 4288591811
-0.01741525 0.067260198 0.52190006 4285628303
-0.012760282 0.067474708 0.52122229 4285233548
-0.007829072 0.067481108 0.52127773 4292337892
-0.0024852841 0.067506731 0.52147621 4289443007
0.0028683441 0.067682177 0.52283335 4286550182
0.0065925261 0.067515828 0.52400011 4289443267
-0.016377779 0.072702527 0.52386677 4283194730
-0.012805122 0.072665386 0.52299994 4283984764
-0.0078407535 0.072533458 0.52205551 4292600036
-0.0024895256 0.072592244 0.52247608 4291612886
0.0026918938 0.072527699 0.52368754 4288982463
0.0057661086 0.071560673 0.52400005 4288193971
-0.016547168 0.077774152 0.52400011 4287338658
-0.012807712 0.077646218 0.52313888 4287865516
-0.0078551136 0.077626958 0.52300006 4293324269
-0.0026634422 0.077549614 0.52341038 4292928741
0.0010830757 0.075979151 0.52400005 4290627019
-0.016436975 0.082385935 0.52400011 4284317590
-0.012828289 0.082744926 0.52400011 4282540155
-0.0082078613 0.081916459 0.52400011 4288982967
-0.0039147823 0.081028834 0.52400011 4294770427
-0.013241495 0.085644558 0.52400005 4280765283
-0.0058037369 0.088544175 0.52400005 4294574078
-0.0040475996 0.088233501 0.52400011 4294639612
0.0032868558 0.12458234 0.52400005 4294901739
0.008121904 0.12463231 0.52371436 4294901744
0.01236682 0.12466979 0.52350008 4294901749
0.015683118 0.12458234 0.52400005 4294901751
0.023444261 0.12493213 0.52200001 4294901753
0.025502419 0.12493213 0.52200001 4294901753
0.0427632 0.1245688 0.52249998 4294836217
0.04733013 0.12372212 0.52212501 4294836217
0.05250027 0.12329706 0.52155006 4294770681
0.057576969 0.12362272 0.52170837 4294770681
0.062042769 0.12416886 0.52199996 4294770681
0.065019056 0.12493213 0.52200001 4294770681
0.089234278 0.12458234 0.52400005 4294770681
0.092874028 0.12461594 0.52310008 4294770681
0.096258827 0.12458234 0.52400005 4294770681
0.11339678 0.12475724 0.52300006 4294770681
0.11648717 0.12478222 0.52285719 4294770681
0.12264749 0.12493213 0.52200001 4294770681
-0.12733066 0.12745368 0.52258825 4294770681
-0.1224207 0.12768067 0.52196556 4294836217
-0.11781935 0.12716234 0.52180952 4294770681
-0.10188657 0.12723868 0.523 4294836216
-0.097542003 0.12719697 0.52226663 4294770676
-0.092542559 0.12733032 0.52225 4294836209
-0.087881163 0.12726292 0.52310002 4294770672
-0.082439184 0.12744328 0.5226 4294770672
-0.077295817 0.12634747 0.52227277 4294770669
-0.07249736 0.12581217 0.52223533 4294770666
-0.06759005 0.1259225 0.52249998 4294705127
-0.062307429 0.12641263 0.52184206 4294770661
-0.057440564 0.12774982 0.52200001 4294770410
-0.05246437 0.12839638 0.52247065 4294770669
-0.049225211 0.12815309 0.52000004 4294836206
-0.042334054 0.12756743 0.52350003 4294836195
-0.03786077 0.12648574 0.52160007 4294770142
-0.034463249 0.12609775 0.52000004 4294901726
-0.027373224 0.12595594 0.52127272 4294769368
-0.022639936 0.12606853 0.52158332 4294900954
-0.019758116 0.12604806 0.52149999 4294835418
-0.012809852 0.12846529 0.5217272 4294770663
-0.0010102908 0.12818465 0.52359998 4294901742
0.0028585638 0.12730072 0.52157152 4294901745
0.0074850782 0.1261986 0.52141672 4294901746
0.012927969 0.1256633 0.52118748 4294901751
0.017518492 0.12540199 0.52184618 4294901752
0.022154409 0.12524958 0.52074999 4294901753
0.027411593 0.12611108 0.52215385 4294836217
0.033269227 0.12718169 0.52333337 4294836217
0.036940366 0.12602438 0.52225 4294836217
0.063949831 0.12527561 0.52000004 4294770681
0.067344032 0.12570179 0.52279997 4294770681
0.072918698 0.12592307 0.52171427 4294770681
0.077520378 0.1257823 0.52211118 4294770681
0.082532562 0.1258897 0.52255559 4294770681
0.087427534 0.12596539 0.52238101 4294770681
0.092164539 0.12555 0.52145457 4294770681
0.097686358 0.12612912 0.52234995 4294770681
0.10137155 0.12770647 0.52266669 4294770681
0.10780027 0.12637433 0.52160001 4294770681
0.11222652 0.12571634 0.52085716 4294770681
0.11744213 0.12547188 0.52081817 4294770681
0.12232957 0.12535067 0.52100003 4294770681
0.12789461 0.1261079 0.52184212 4294770681
-0.12344508 0.13020845 0.52000004 4294901753
-0.01111147 0.13045885 0.52100003 4294836212
-0.0020249602 0.13211276 0.52335721 4294836216
0.0020722782 0.13110371 0.52118182 4294836217
-0.037156563 0.02408056 0.52560008 4294178036
0.019890837 0.024431156 0.52600002 4294770683
0.021646103 0.024539532 0.52833337 4294770683
-0.03807776 0.027470112 0.52686667 4290558906
0.019853022 0.025214754 0.52500004 4294770686
0.022205662 0.027624242 0.5271154 4292730589
-0.040065546 0.032934185 0.52900004 4289244588
-0.038204957 0.032352086 0.52633333 4284309345
0.019413859 0.033182107 0.52555561 4286282886
0.022078751 0.03203712 0.52739137 4283190102
-0.040065546 0.035861477 0.52900004 4291546059
-0.037999351 0.037554596 0.52676189 4289046693
0.018772207 0.037495021 0.52631819 4284908182
0.021199908 0.037312236 0.52854544 4287999683
-0.037110507 0.042331088 0.52728003 4289243298
-0.034587629 0.043683242 0.52500004 4290492852
0.014899231 0.043932952 0.52550006 4279711054
0.017637456 0.042179041 0.52704 4282540412
0.020421434 0.041297872 0.52900004 4282869891
-0.037065271 0.047466043 0.52783334 4285689708
-0.033789221 0.047542274 0.52544999 4292006860
0.014193831 0.047317572 0.52618754 4281422703
0.01629936 0.047719777 0.52833337 4283329670
-0.036242273 0.05189874 0.52854544 4284111185
-0.033274811 0.052215904 0.52607995 4288190869
0.014618508 0.051116556 0.52533334 4286948536
0.017391304 0.052494768 0.52734482 4287933375
0.020004284 0.053843398 0.52900004 4278991713
-0.032209933 0.057152934 0.52719051 4287532686
-0.029569598 0.059007514 0.52533334 4286021000
0.014130153 0.057879277 0.52550006 4284513173
0.017273907 0.057323985 0.52766669 4287670465
-0.030721352 0.061203443 0.52900004 4281546558
-0.027803134 0.062573075 0.52727276 4280428598
-0.024906039 0.064349174 0.52600002 4281419347
0.009917086 0.063811824 0.52500004 4287931305
0.012970693 0.062399738 0.52626473 4287404972
0.016484033 0.062311649 0.52846664 4288193724
-0.026275082 0.065699689 0.52850002 4288392118
-0.022642868 0.066759191 0.52641672 4286485666
-0.019639982 0.069018312 0.52566671 4280625470
0.0090913139 0.067464791 0.52511764 4292601839
0.012865073 0.067381293 0.52694446 4290759636
0.016107542 0.067211524 0.52888894 4289048769
-0.020250846 0.072870784 0.52900004 4283061858
-0.018579664 0.07281214 0.52593756 4284773246
0.004949118 0.074187376 0.52500004 4291677151
0.008161772 0.072344035 0.52541929 4289706441
0.012696467 0.072385862 0.5278182 4289245629
-0.021168096 0.077988677 0.52700001 4288588464
-0.019068141 0.077528343 0.52514279 4287141021
-0.00029484843 0.079721004 0.52500004 4285691259
0.0031097059 0.077553093 0.52548385 4291218386
0.0078688227 0.077297576 0.526389 4285098103
0.012222133 0.077438697 0.52823079 4292336864
-0.025980761 0.08424627 0.52887505 4284707712
-0.022359755 0.082565024 0.52739292 4284183942
-0.018739106 0.083100438 0.52520001 4283791500
-0.007352517 0.084207214 0.52500004 4292469991
-0.0022189501 0.0832467 0.52499986 4289638578
0.0029475491 0.082359813 0.52645719 4289441463
0.0078912424 0.082525112 0.52788883 4292730850
0.011656407 0.081794292 0.52876937 4290165180
-0.02635921 0.087403156 0.52879184 4286353308
-0.022451311 0.08734636 0.52676672 4284643979
-0.017800655 0.08762446 0.5254848 4282473841
-0.012785995 0.088217795 0.52499986 4280895322
-0.0080065634 0.087834299 0.52499986 4289576128
-0.0021375425 0.087761052 0.52499986 4292797155
0.0028862781 0.087228 0.52605563 4290953928
0.0075867828 0.087402239 0.52816135 4285689976
-0.025256667 0.092316352 0.52900004 4286023061
-0.022478461 0.092454687 0.52740014 4284444798
-0.017948702 0.092310436 0.52588236 4283392878
-0.012853717 0.092454337 0.52503318 4282273626
-0.0078256577 0.092804089 0.52499986 4291351766
-0.0025727269 0.092601359 0.52547222 4292928226
0.0028945059 0.092473388 0.52750003 4289769395
0.0067462102 0.092334181 0.52883345 4284110686
-0.025381813 0.098087296 0.5290001 4284969085
-0.022476517 0.097450703 0.52736682 4284640378
-0.017861784 0.097234815 0.52619457 4284509819
-0.012877247 0.097198397 0.52600014 4283917681
-0.0079634534 0.097486347 0.52574193 4291022545
-0.00244742 0.097344145 0.52651244 4290098615
0.0027109836 0.097594105 0.52875769 4291742414
0.0058211288 0.096080013 0.52900004 4292730335
-0.025256667 0.10130732 0.52900004 4285758600
-0.022122689 0.10256115 0.52820003 4286416529
-0.017634489 0.10242043 0.52744126 4285496199
-0.012841144 0.10231306 0.52694309 4284839042
-0.0076196655 0.10241357 0.52672517 4292009182
-0.00225029 0.10238288 0.52744746 4292599004
0.0023645645 0.10263093 0.52889305 4293189601
-0.02004227 0.10569826 0.52900004 4293192941
-0.016693411 0.10583241 0.52862501 4292864234
-0.011639753 0.1065388 0.52852952 4292666853
-0.0070440657 0.10762591 0.52848577 4293718256
-0.0022861655 0.10752261 0.52884394 4293191657
0.0018013042 0.10653461 0.5290001 4294244087
-0.006335861 0.11167232 0.52900016 4289965752
-0.0035647822 0.11092556 0.52900004 4292993253
-0.008362026 0.11715652 0.5290001 4294769137
-0.12717058 0.12471661 0.52866673 4294901750
-0.122396 0.12436134 0.52818179 4294901750
-0.11802702 0.12457907 0.528 4294901750
-0.096626922 0.12450881 0.5287143 4294836206
-0.092538707 0.12439848 0.52850008 4294836206
-0.087524831 0.12479978 0.52842861 4294836205
-0.083866462 0.12493473 0.52900004 4294836204
-0.076285563 0.12460755 0.52850002 4294836201
-0.072419338 0.12420217 0.52766663 4294770662
-0.067511313 0.12435909 0.52833337 4294705119
-0.062532179 0.12439846 0.52849996 4294704860
-0.057531089 0.12439848 0.52850008 4294639064
-0.052530002 0.12439848 0.52850008 4294572242
-0.04736026 0.1244942 0.52876937 4294635982
-0.043263715 0.12465594 0.52900004 4294504139
-0.02504809 0.12493473 0.52900004 4294830539
-0.022101194 0.12477729 0.52833337 4294699466
-0.017346065 0.12451054 0.52877778 4294832335
-0.011444684 0.12359113 0.52880013 4294702291
-0.0072716465 0.12295856 0.52878797 4294505171
-0.0019653328 0.12384151 0.52850008 4294901475
0.0028246867 0.12295637 0.52735496 4294901480
0.0076649846 0.12315876 0.52728009 4294901742
0.012235801 0.12379655 0.52683336 4294901749
0.017623007 0.12457045 0.52692306 4294901752
0.022906397 0.12454841 0.5266667 4294836217
0.026733551 0.12459322 0.528 4294836217
0.043054808 0.12381688 0.52691668 4294836217
0.04780462 0.12276676 0.52658337 4294836217
0.052740633 0.12228987 0.52645451 4294770681
0.057548296 0.1223952 0.52690911 4294770681
0.062501945 0.12362865 0.52700001 4294770681
0.066842303 0.12450571 0.52860004 4294770681
0.072796717 0.12467015 0.52866673 4294770681
0.077656142 0.12403199 0.52727276 4294770681
0.082428977 0.12412831 0.52713054 4294770681
0.087686859 0.12404706 0.52676195 4294770681
0.092106879 0.12332079 0.52652943 4294770681
0.097806521 0.12366863 0.52700001 4294770681
0.10187257 0.12426034 0.52811116 4294770681
0.10754687 0.12486725 0.5287143 4294770681
0.11237883 0.12434109 0.52730781 4294770681
0.11764493 0.12440667 0.52709097 4294770681
0.12233033 0.12471147 0.52630001 4294770681
0.1270894 0.12434095 0.52750003 4294770681
-0.12735815 0.12588842 0.52600008 4294836215
-0.12246915 0.12549561 0.52569234 4294836215
-0.11697373 0.12607545 0.5267778 4294836216
-0.11462684 0.12732378 0.52850002 4294836217
-0.10134742 0.12633879 0.52711117 4294836213
-0.097534426 0.12614836 0.52688235 4294770673
-0.092482425 0.12623458 0.52675003 4294770672
-0.087650195 0.12604763 0.5266667 4294770671
-0.082525045 0.12619232 0.52709997 4294770669
-0.077670485 0.12575068 0.52658331 4294770667
-0.072606422 0.12505783 0.52600002 4294770663
-0.067669764 0.12514246 0.52585715 4294705123
-0.062451974 0.12541352 0.52590913 4294770656
-0.057479627 0.12601449 0.52633333 4294704861
-0.052641694 0.12645403 0.52628005 4294639067
-0.047740255 0.12696242 0.52667749 4294703833
-0.0429275 0.12653074 0.52717394 4294703318
-0.037813578 0.12660253 0.5266667 4294637525
-0.034073934 0.1268817 0.52666664 4294703573
-0.027216367 0.12554556 0.52611113 4294635470
-0.022832112 0.12547287 0.52600002 4294833362
-0.018712671 0.12568089 0.52687502 4294899926
-0.012188613 0.12682962 0.52660882 4294901726
-0.0080108056 0.12747936 0.52691191 4294901729
-0.0028373154 0.12780347 0.52566671 4294836202
0.02855261 0.12581576 0.52700007 4294836217
0.033148862 0.12724812 0.52671432 4294836217
0.037023421 0.12588984 0.52700001 4294836217
0.040707376 0.12529559 0.52700001 4294836217
0.064810701 0.12529559 0.52700001 4294770681
0.068102375 0.12544365 0.52675003 4294770681
0.072236821 0.12538986 0.52600002 4294770681
0.075886935 0.12505785 0.52600002 4294770681
0.10283557 0.12602124 0.52616668 4294770681
0.10694872 0.12612589 0.52622229 4294770681
0.11031416 0.12505785 0.52600002 4294770681
0.12814996 0.12505785 0.52600002 4294770681
-0.011218106 0.1300476 0.52600002 4294770666
-0.0077264644 0.13224524 0.52579421 4294836213
-0.0045150355 0.13137718 0.52514297 4294836214
-0.0083146039 0.13503735 0.52600002 4294836217
-0.040623456 0.024459377 0.53266668 4291875281
-0.03945373 0.024287701 0.53200006 4293388776
0.023495927 0.024311716 0.53250003 4294770684
-0.041256119 0.028062297 0.53177774 4289505958
-0.039305408 0.027130792 0.53000003 4288519066
0.024046805 0.026119772 0.53075004 4294705149
0.025748631 0.027836639 0.53350002 4290691267
-0.042276785 0.032591388 0.53160006 4287927953
0.023769742 0.03387155 0.53057146 4283192936
0.025917517 0.032529525 0.53262502 4280496714
-0.042447507 0.037904385 0.53187877 4285624167
0.023352042 0.037801437 0.53121054 4288000716
0.025834549 0.038109474 0.53371423 4285696673
-0.045412172 0.044559568 0.53300005 4290952618
-0.042384043 0.042784888 0.5318889 4286150767
-0.039305408 0.043051835 0.53000003 4289769898
0.018588368 0.044539347 0.53025001 4282012780
0.022344807 0.042774782 0.53193104 4280237916
0.025720989 0.041677278 0.53385717 4285169555
-0.04209704 0.047539417 0.53151613 4288913560
-0.039305408 0.047660559 0.53000003 4287466121
0.018365214 0.047624718 0.53116673 4283658635
0.022048146 0.047776032 0.53315157 4283002246
0.025920246 0.048948962 0.53400004 4288069844
-0.041474275 0.051816251 0.53280002 4287795077
-0.038065732 0.053130616 0.53110522 4287927691
0.019206217 0.050593384 0.53000003 4290039519
0.022405554 0.052396614 0.53209376 4281888149
0.025948316 0.051467717 0.53399998 4280312460
-0.037147108 0.057419986 0.5324828 4285493104
-0.033830963 0.059004903 0.53028578 4284571744
0.019206217 0.05897288 0.53000003 4282672259
0.021682166 0.057290796 0.53244001 4280050579
-0.037157767 0.062168788 0.53273332 4285229417
-0.032554623 0.063142218 0.53076673 4284111195
-0.029274842 0.064419553 0.53000003 4284835948
0.018549485 0.063035198 0.53033346 4286422201
0.021896806 0.062328931 0.53300005 4280449191
-0.036119081 0.066796139 0.53313333 4282729026
-0.032297894 0.067557022 0.53160006 4284439389
-0.027494702 0.06788633 0.53180003 4284047725
-0.023003323 0.068972312 0.53100008 4281023569
0.018094059 0.067863412 0.53089476 4289183445
0.020959079 0.066991046 0.53337502 4279590543
-0.032443445 0.07039351 0.53399998 4281610803
-0.027811406 0.070393518 0.53400004 4279967017
-0.022242358 0.07235115 0.53259093 4282469210
-0.019244278 0.070704177 0.53000003 4279376433
0.017421635 0.07259392 0.53156668 4290497753
0.020193359 0.072082065 0.53400004 4280904080
-0.035391103 0.079680532 0.53400004 4289967026
-0.032423716 0.079208657 0.53366667 4290098868
-0.026941007 0.078752518 0.53343749 4290429122
-0.023206232 0.077317342 0.53165209 4287535774
0.014190936 0.078664698 0.53000003 4292203992
0.016822174 0.07735204 0.53199995 4290889678
-0.035727981 0.082635492 0.53399998 4288915625
-0.032255601 0.082374856 0.53181088 4287665562
-0.02749373 0.08207906 0.53073531 4287534495
-0.024274817 0.080809839 0.53033334 4287865258
0.013123771 0.083258569 0.53028578 4289112749
0.016780604 0.082409158 0.53253335 4288913060
-0.035727978 0.088038847 0.53399998 4285363836
-0.032349445 0.087339088 0.53142858 4286219661
-0.028666927 0.088301115 0.53000009 4286220693
0.0091756545 0.089977019 0.53000003 4283386192
0.012263551 0.087612875 0.53090906 4289835445
0.016129037 0.087409839 0.53325003 4291547091
-0.035391103 0.091500364 0.53400004 4286614418
-0.032204345 0.092385963 0.53275758 4285364613
-0.027850449 0.092614681 0.53070837 4285825168
0.0087112766 0.092956394 0.53000003 4285163117
0.012233201 0.092430487 0.531353 4291084997
0.015647592 0.092537895 0.53361535 4288718760
-0.031245066 0.097365975 0.53350002 4284903289
-0.027840853 0.097136356 0.530963 4285100927
0.0049962522 0.098775491 0.53000003 4293321956
0.007730878 0.097346745 0.53011537 4292598491
0.012151498 0.097482271 0.53208333 4290887872
0.015140226 0.097410277 0.53400004 4283717723
-0.030478336 0.1021945 0.53399998 4285100148
-0.027622635 0.102621 0.53139997 4286284165
-0.02425956 0.10422216 0.53000003 4288322715
0.0048768409 0.10242655 0.53000003 4290556341
0.0075160637 0.10227535 0.53076667 4287004035
0.011749157 0.10246734 0.53289652 4291874512
-0.030337971 0.10543088 0.53400004 4293125856
-0.027207999 0.10750188 0.53232354 4291744205
-0.022371551 0.10759117 0.53061289 4293256929
-0.017319115 0.1081911 0.5304091 4292336604
-0.012759972 0.10861986 0.53038472 4292468704
-1.9029747e-05 0.10924986 0.53000003 4292007133
0.0035008793 0.107673 0.53005266 4293059557
0.007368356 0.10755167 0.53143746 4293388522
0.011588738 0.10719407 0.53328007 4293454830
-0.026584126 0.11203042 0.53336841 4290559160
-0.022236371 0.11251263 0.53155553 4287007116
-0.017181942 0.11235852 0.53083342 4290559424
-0.012153639 0.11230525 0.53058338 4291479757
-0.0078861397 0.11304527 0.53000009 4287136141
-0.0017772604 0.11254387 0.52999991 4292533216
0.0024914877 0.11227486 0.53043336 4290494664
0.0070242123 0.11260673 0.53258836 4289968576
0.010742128 0.1113877 0.53399998 4292665828
-0.02556557 0.11542144 0.53400004 4292796116
-0.021808015 0.11725172 0.53304166 4294373604
-0.017187469 0.11742625 0.53097224 4294505191
-0.012139294 0.11721037 0.53000003 4294571757
-0.006735926 0.11736001 0.52999991 4294111722
-0.0021089576 0.11725923 0.53022218 4294835448
0.0026473945 0.1174041 0.5304063 4294573045
0.0072181164 0.11754972 0.53232354 4294507253
-0.12774189 0.12353789 0.53200012 4294901749
-0.12257224 0.12377554 0.53249997 4294901748
-0.11726445 0.12399191 0.53235292 4294901748
-0.11267667 0.12416004 0.53369224 4294836210
-0.107162 0.12332813 0.53345001 4294836207
-0.10268655 0.12312865 0.53217858 4294836206
-0.097885355 0.12319231 0.53105003 4294836206
-0.092901394 0.1237324 0.53237504 4294836204
-0.087110944 0.12381336 0.53158838 4294836203
-0.082498223 0.12360591 0.53229171 4294770666
-0.077948146 0.12374253 0.53221047 4294770662
-0.071578942 0.12338647 0.53225005 4294770658
-0.067631587 0.12324691 0.53255558 4294705117
-0.062389039 0.12300751 0.53225005 4294639063
-0.057597727 0.12301711 0.53194737 4294638291
-0.052437555 0.12306654 0.53177774 4294637007
-0.047262337 0.12289564 0.53142107 4294635211
-0.042538382 0.12333692 0.53195453 4294568649
-0.039602049 0.12442704 0.53400004 4294502600
-0.026083309 0.1241318 0.53310001 4294631875
-0.022061255 0.12274341 0.53225726 4294302912
-0.017177764 0.12213326 0.53068745 4294106561
-0.01274721 0.12155247 0.52999997 4293976005
-0.0061090151 0.12062202 0.53000003 4293911502
-0.0022132155 0.12150488 0.52999997 4294044885
0.0029065516 0.12056217 0.53000009 4293585108
0.0077102259 0.12104475 0.53084624 4294440935
0.011612474 0.12213644 0.53273696 4294770161
0.01744671 0.12391861 0.53285712 4294901752
0.021972217 0.12383771 0.53220004 4294836217
0.026384484 0.12384372 0.53150004 4294836217
0.032338016 0.1241669 0.53288895 4294836217
0.036608644 0.12455451 0.53300005 4294836217
0.04264053 0.12387782 0.53299999 4294836217
0.047311593 0.12280502 0.53210002 4294836217
0.052830301 0.12208648 0.53190005 4294770681
0.057253908 0.12187414 0.53190917 4294770681
0.062567055 0.12291586 0.53164291 4294770681
0.067799382 0.12367921 0.53164715 4294770681
0.072602786 0.12333506 0.53233331 4294770681
0.077589095 0.12170161 0.5316667 4294770681
0.082389265 0.12166516 0.5313077 4294770681
0.08723291 0.12246593 0.53195244 4294770681
0.092288658 0.12231521 0.53242856 4294770681
0.098009408 0.12211348 0.5312857 4294770681
0.10262117 0.12248003 0.5316667 4294770681
0.10730247 0.12333768 0.5321154 4294770681
0.1121781 0.12336119 0.53244448 4294770681
0.11755455 0.12395599 0.53249997 4294770681
0.12249949 0.12413008 0.53109097 4294770681
0.12775204 0.12369881 0.53160006 4294770681
-0.11537051 0.1251709 0.53000003 4294901751
-0.11235954 0.12710279 0.53273696 4294836214
-0.10759974 0.12712578 0.53262055 4294836213
-0.1032254 0.12604454 0.5306924 4294836212
-0.099488787 0.1251709 0.53000003 4294836207
-0.081517361 0.1251709 0.53000003 4294836203
-0.079009719 0.1251709 0.53000003 4294836202
-0.04044516 0.12552895 0.53033334 4294569933
-0.037867665 0.12621249 0.53233337 4294569676
-0.031409185 0.1273388 0.53249997 4294635983
-0.028003732 0.12544896 0.53162503 4294567879
-0.015064877 0.1251709 0.53000003 4294966232
0.019206217 0.1251709 0.53000003 4294901753
0.032193393 0.12602249 0.53050011 4294836217
0.036970988 0.12552397 0.53149998 4294836217
0.040826987 0.12527131 0.53400004 4294836217
0.06726934 0.1251709 0.53000003 4294770681
0.12327333 0.1251709 0.53000003 4294770681
-0.042675301 0.02401315 0.53733331 4292203989
0.024148427 0.023022296 0.53580004 4294639612
0.026150376 0.023774587 0.53681827 4294639612
-0.046402227 0.028326685 0.5382728 4289374112
-0.043803439 0.027397104 0.53616667 4290295215
0.027961718 0.027251564 0.53673691 4289639095
-0.047413573 0.032303255 0.53659993 4287664521
-0.044738803 0.032884799 0.53500003 4290427569
0.028418943 0.03337596 0.53524995 4280234056
-0.047024056 0.03706656 0.53654552 4288518798
-0.044738807 0.035845295 0.53500003 4290688941
0.02815517 0.037025195 0.53525001 4287932342
0.03046985 0.035979293 0.537 4285627270
-0.045582574 0.040074568 0.53500003 4291347123
0.026918923 0.043557324 0.53527266 4288853698
0.024239063 0.046207018 0.53500003 4281093485
0.027132893 0.046929736 0.53520828 4285500572
-0.043411873 0.05366699 0.5362308 4290162850
0.027643515 0.052867595 0.53511107 4280245642
-0.045073304 0.058696035 0.53900003 4291543469
-0.04253085 0.057530399 0.53706253 4285295719
-0.039713293 0.058314893 0.53550005 4282664525
0.024074998 0.058025487 0.53500003 4279461787
0.026897486 0.057361994 0.53640741 4278996348
-0.045214981 0.062814899 0.53900003 4291478445
-0.042324308 0.062642731 0.53760713 4284637534
-0.039537124 0.063298978 0.53540003 4283848025
0.024450004 0.062489718 0.53500003 4279003035
0.025985384 0.062669888 0.53533334 4278936211
-0.045498341 0.065513469 0.53900003 4290821029
-0.042180538 0.066699952 0.53868759 4282926913
-0.038598314 0.067905322 0.53694445 4281677109
0.023370137 0.067852311 0.53568429 4279396253
0.026105074 0.06719882 0.53700012 4281498020
-0.037524939 0.072206132 0.53818512 4286217850
-0.032568377 0.072782755 0.53604168 4287138698
-0.027344434 0.072736688 0.53624135 4283390044
-0.024299208 0.073097922 0.53614289 4281942861
0.022501526 0.072511628 0.53646159 4281761448
0.02576624 0.070484512 0.53900003 4283009715
-0.037346076 0.077513352 0.53787094 4288323480
-0.032575894 0.076611184 0.53616655 4288454042
-0.027900772 0.076475658 0.53570837 4286613642
0.019387409 0.077715106 0.53500003 4285234834
0.022010427 0.077605493 0.53717244 4284452789
-0.038542863 0.08235316 0.53800005 4287928726
0.019387409 0.082790233 0.53500003 4292730591
0.022458469 0.082437821 0.53688574 4291548637
0.025482884 0.082130961 0.53900003 4293982715
-0.038198587 0.087517418 0.53746158 4287468177
0.018616742 0.087863758 0.53535712 4292271331
0.022023778 0.087005302 0.53752005 4290365142
0.025482884 0.085965768 0.53900003 4292337634
-0.037797198 0.092654176 0.53730774 4286283135
-0.034613617 0.094209276 0.53500003 4285429888
0.018299295 0.09253747 0.53604764 4290496466
0.020580772 0.092293441 0.53862506 4285302949
-0.036838662 0.097186677 0.53790009 4284045407
-0.033854835 0.09763173 0.53549999 4283718243
0.017804947 0.097487241 0.53634483 4289049535
0.020382436 0.097470179 0.53900003 4286094008
-0.036334693 0.10171404 0.53890914 4286018936
-0.033152573 0.10268743 0.53667855 4286151549
0.014324813 0.10309075 0.53500003 4293716713
0.017323639 0.10250012 0.53633332 4292335836
0.020707341 0.10242158 0.53860009 4289903558
-0.035722483 0.10684415 0.53900003 4291347130
-0.032639015 0.10761175 0.53693545 4291743174
0.014043558 0.10774296 0.53500003 4294046195
0.017086603 0.10746779 0.53703237 4293388008
0.020382436 0.10599197 0.53900003 4292730849
-0.03233825 0.1122063 0.5377143 4287399814
-0.028858189 0.1131603 0.5353846 4291940042
0.012808571 0.11282645 0.53534609 4291020491
0.016936405 0.11249147 0.53748274 4290559169
-0.032347564 0.11769839 0.53839284 4293317314
-0.027635414 0.11759526 0.53639281 4293977046
-0.023778273 0.11904438 0.53528577 4294371031
0.0092622172 0.11662444 0.53500003 4294770686
0.012142579 0.11758466 0.53608829 4294638839
0.017052967 0.11750064 0.53832144 4294704630
-0.12761527 0.12205521 0.53677773 4294901748
-0.12260655 0.1232129 0.53791672 4294901748
-0.11740115 0.12276121 0.53723079 4294901747
-0.11253408 0.12190899 0.53655559 4294836209
-0.10770401 0.12111358 0.53642857 4294836205
-0.10241232 0.12153351 0.53655559 4294836204
-0.097204261 0.12301815 0.53785717 4294836204
-0.091232784 0.12408319 0.53800005 4294836202
-0.087391913 0.12286057 0.537 4294770665
-0.082415082 0.12169827 0.53664708 4294770662
-0.077490449 0.12208581 0.53700006 4294770659
-0.072249666 0.12201997 0.5375334 4294705120
-0.06741488 0.12157192 0.53652942 4294639322
-0.062631831 0.12150917 0.53650004 4294704341
-0.057584371 0.12187217 0.53676927 4294571984
-0.052543849 0.12212035 0.53716671 4294570701
-0.047858641 0.1216998 0.53687501 4294634697
-0.042399112 0.12178455 0.53683347 4294699720
-0.037665263 0.12283766 0.53756249 4294632901
-0.032592084 0.12251355 0.53789473 4294368704
-0.027821455 0.12202029 0.53608817 4294039227
-0.023933539 0.12103219 0.53516674 4293644729
0.013306201 0.12112422 0.53576916 4294638831
0.017343637 0.12172782 0.53700006 4294835957
0.02218798 0.12219021 0.53708696 4294836216
0.027407499 0.12318699 0.53823084 4294836217
0.032981053 0.12310046 0.53650004 4294836217
0.03773319 0.12352689 0.53670007 4294836217
0.042506102 0.12328749 0.5371334 4294836217
0.047529466 0.12269986 0.53700006 4294836217
0.052472435 0.12219281 0.53680003 4294770681
0.057675801 0.12207752 0.53800005 4294770681
0.062783077 0.12241404 0.53740007 4294770681
0.067485899 0.12212108 0.5369525 4294770681
0.072459288 0.12137476 0.53704756 4294770681
0.077084385 0.12046989 0.53675002 4294770681
0.082909875 0.12021475 0.53655553 4294770681
0.087314285 0.12124199 0.53709996 4294770681
0.09262941 0.12165678 0.53614289 4294770681
0.096916616 0.12166115 0.53820002 4294770681
0.10480331 0.1210788 0.53600001 4294770681
0.10789708 0.12139732 0.53607142 4294770681
0.11263374 0.12168423 0.53638893 4294770681
0.1175733 0.12254259 0.53705567 4294770681
0.12253314 0.12296281 0.53683329 4294770681
0.12730952 0.1227019 0.53680003 4294770681
-0.036457751 0.12593636 0.53618181 4294568393
-0.033020765 0.1266354 0.53652173 4294568393
-0.029551018 0.12550591 0.53500003 4294501572
0.038794026 0.12550591 0.53500003 4294836217
-0.045407798 0.024362253 0.54300004 4289439909
-0.044551414 0.023503749 0.54300004 4292137939
0.02467851 0.021666374 0.54000002 4294574078
0.028186167 0.022599231 0.54194117 4294639613
0.031381391 0.023407482 0.54299998 4292468447
-0.04792117 0.027272787 0.54235721 4287532168
0.029651189 0.026134744 0.5406 4291547091
0.031373378 0.026012627 0.54162502 4288717223
-0.049146786 0.037945844 0.54079998 4287137655
-0.046008576 0.054536138 0.54000002 4291213994
-0.046692397 0.058236558 0.54133338 4292068268
-0.046754971 0.061484117 0.54041666 4290358165
-0.045525488 0.068608753 0.54100001 4291808693
-0.043321006 0.068658121 0.54027271 4287006326
0.027969703 0.068972088 0.54050004 4288793316
-0.045709766 0.070526063 0.54150003 4291085226
-0.042125519 0.07256411 0.5402258 4287927429
-0.039195362 0.074172616 0.54000002 4283520589
0.024678508 0.073745735 0.54000002 4280377223
0.027578382 0.072624438 0.54177785 4287147458
0.030009074 0.073431917 0.54400003 4291025120
-0.045240551 0.077303663 0.54100001 4292728250
-0.042282645 0.077609196 0.54057157 4289571479
-0.039195362 0.075453259 0.54000002 4288783254
0.024678512 0.077587657 0.54000002 4284058801
0.027060414 0.077371083 0.54196006 4288988374
0.030009074 0.075152084 0.54400003 4292274672
-0.045324177 0.080445781 0.54200006 4292859579
-0.04261037 0.082522631 0.54092312 4289637534
0.026612032 0.080754556 0.54120004 4292930032
-0.045324177 0.086444236 0.54200006 4291476388
-0.04252246 0.087246999 0.54100007 4289833115
0.023852749 0.088841602 0.54057145 4286158000
0.026044505 0.088560097 0.5418334 4290628053
-0.045457974 0.093146257 0.54359996 4293646011
-0.042543083 0.092561267 0.54159379 4290555039
0.023295958 0.092687622 0.54207695 4285237930
0.026000006 0.092335254 0.54388899 4287668914
-0.042001288 0.097325027 0.54244822 4287858043
-0.038935672 0.098423548 0.54033333 4284571234
0.023024878 0.097596735 0.54248273 4285700022
0.025719274 0.097299255 0.54400003 4292603894
-0.041399777 0.10216832 0.54283339 4289634709
-0.038305014 0.10287452 0.5407778 4289373342
0.023339953 0.10231804 0.54111117 4290759893
0.025933951 0.10241685 0.54310006 4293718258
