# .PCD v0.7 - Point Cloud Data file format
VERSION 0.7
FIELDS x y z rgb
SIZE 4 4 4 4
TYPE F F F U
COUNT 1 1 1 1
WIDTH 1032
HEIGHT 1
VIEWPOINT 0 0 0 1 0 0 0
POINTS 1032
DATA ascii
-0.0081565315 0.045177877 0.51600003 4293720316
-0.0073427311 0.045177877 0.51600003 4294246399
-0.0065289303 0.045177877 0.51600003 4293589496
-0.0057262061 0.045265432 0.51700002 4293655289
-0.00490133 0.045177877 0.51600003 4293984255
-0.0040875296 0.045177877 0.51600003 4294049791
-0.0032800734 0.045265432 0.51700002 4292538359
-0.0024646956 0.045265432 0.51700002 4284840578
-0.0016493181 0.045265432 0.51700002 4279840581
-0.00083394058 0.045265432 0.51700002 4278985272
-1.856298e-05 0.045265432 0.51700002 4279051585
0.00079681462 0.045265432 0.51700002 4279117378
0.0016153106 0.045352988 0.51800001 4279315270
0.0024322653 0.045352988 0.51800001 4278920512
0.0032492199 0.045352988 0.51800001 4278263606
0.0040661748 0.045352988 0.51800001 4278197813
0.0048925565 0.04544054 0.51900005 4278197812
0.0057110884 0.04544054 0.51900005 4278329912
0.0065296204 0.04544054 0.51900005 4278462012
0.0073481523 0.04544054 0.51900005 4278527805
0.0081666838 0.04544054 0.51900005 4278462782
0.0089852158 0.04544054 0.51900005 4279054919
0.0098226378 0.045528095 0.52000004 4279187025
0.010642746 0.045528095 0.52000004 4279516247
0.011506944 0.045703202 0.52200001 4279055696
0.012353827 0.045790758 0.523 4279911005
0.013229065 0.045965865 0.52500004 4280568937
0.014083835 0.046053421 0.52600002 4280766316
0.014970112 0.046228524 0.528 4282014066
0.015802838 0.046228524 0.528 4283000961
0.01666707 0.046316084 0.52900004 4285106078
0.017567541 0.046491187 0.53100002 4285106078
0.01843966 0.046578743 0.53200001 4285105054
0.019314932 0.046666298 0.53300005 4283723401
0.020193359 0.04675385 0.53400004 4282935170
0.021035548 0.04675385 0.53400004 4283198342
0.021877738 0.04675385 0.53400004 4282936203
0.022719925 0.04675385 0.53400004 4281883515
0.023606239 0.046841405 0.53500003 4280632677
0.024450004 0.046841405 0.53500003 4280172126
0.025293771 0.046841405 0.53500003 4279974738
0.026137536 0.046841405 0.53500003 4282014319
0.026981303 0.046841405 0.53500003 4284052607
0.027877077 0.046928961 0.53600001 4288065980
-0.04457156 0.047508989 0.53300005 4290952106
-0.043648899 0.047419857 0.53200001 4289373851
-0.042809866 0.047419857 0.53200001 4286807924
-0.041891936 0.047330718 0.53100002 4290032298
-0.04105448 0.047330718 0.53100002 4291611330
-0.040141288 0.047241583 0.53000003 4291281860
-0.039305408 0.047241583 0.53000003 4288584346
-0.03839694 0.047152452 0.52900004 4286939516
-0.037491631 0.047063313 0.528 4287991948
-0.036658902 0.047063313 0.528 4287138179
-0.035690472 0.046885047 0.52600002 4288585625
-0.034860902 0.046885047 0.52600002 4292401874
-0.033966634 0.046795908 0.52500004 4292862424
-0.03313864 0.046795908 0.52500004 4292598998
-0.032249101 0.046706773 0.52400005 4289704106
-0.031422682 0.046706773 0.52400005 4285363061
-0.030537874 0.046617642 0.523 4283060306
-0.029713033 0.046617642 0.523 4278914843
-0.028832959 0.046528503 0.52200001 4278717464
-0.027956035 0.046439368 0.52100003 4281546311
-0.02713435 0.046439368 0.52100003 4284375409
-0.026312664 0.046439368 0.52100003 4283191642
-0.025393123 0.046261098 0.51900005 4286020741
-0.024574591 0.046261098 0.51900005 4291416016
-0.023756059 0.046261098 0.51900005 4293126633
-0.022893332 0.046171963 0.51800001 4293917180
-0.022076378 0.046171963 0.51800001 4293390836
-0.021259421 0.046171963 0.51800001 4291022803
-0.020403003 0.046082828 0.51700002 4285364605
-0.019587627 0.046082828 0.51700002 4285233019
-0.018772248 0.046082828 0.51700002 4285890949
-0.017956872 0.046082828 0.51700002 4292536044
-0.017141493 0.046082828 0.51700002 4293851902
-0.016326116 0.046082828 0.51700002 4293588730
-0.015510738 0.046082828 0.51700002 4291351768
-0.01469536 0.046082828 0.51700002 4286613907
-0.013879983 0.046082828 0.51700002 4285034875
-0.013064605 0.046082828 0.51700002 4287206309
-0.012249227 0.046082828 0.51700002 4287666860
-0.011433849 0.046082828 0.51700002 4283061350
-0.010618472 0.046082828 0.51700002 4278982184
-0.009803094 0.046082828 0.51700002 4280495419
-0.0089877164 0.046082828 0.51700002 4288522165
-0.0081723388 0.046082828 0.51700002 4293655037
-0.0073569613 0.046082828 0.51700002 4294049791
-0.0065415837 0.046082828 0.51700002 4293655289
-0.0057262061 0.046082828 0.51700002 4293721082
-0.0049108285 0.046082828 0.51700002 4294115327
-0.004095451 0.046082828 0.51700002 4294180863
-0.0032800734 0.046082828 0.51700002 4292538359
-0.0024646956 0.046082828 0.51700002 4284906371
-0.0016493181 0.046082828 0.51700002 4280432718
-0.00083394058 0.046082828 0.51700002 4278327342
-1.856298e-05 0.046082828 0.51700002 4278723385
0.00079681462 0.046082828 0.51700002 4279249729
0.0016153106 0.046171963 0.51800001 4280499797
0.0024322653 0.046171963 0.51800001 4281420898
0.0032492199 0.046171963 0.51800001 4281158494
0.0040740245 0.046261098 0.51900005 4280961115
0.0048925565 0.046261098 0.51900005 4281224544
0.0057110884 0.046261098 0.51900005 4281487973
0.0065296204 0.046261098 0.51900005 4280896351
0.0073481523 0.046261098 0.51900005 4279909456
0.0081666838 0.046261098 0.51900005 4278988356
0.0090025282 0.046350233 0.52000004 4279580493
0.0098226378 0.046350233 0.52000004 4280568165
0.010642746 0.046350233 0.52000004 4282015611
0.011506944 0.046528503 0.52200001 4279712856
0.012353827 0.046617642 0.523 4279844442
0.013229065 0.046795908 0.52500004 4280042591
0.014083835 0.046885047 0.52600002 4281161072
0.014970112 0.047063313 0.528 4281751926
0.015802838 0.047063313 0.528 4281883512
0.016698577 0.047241583 0.53000003 4285040546
0.017567541 0.047330718 0.53100002 4284843167
0.01843966 0.047419857 0.53200001 4284514716
0.019314932 0.047508989 0.53300005 4284185751
0.020155543 0.047508989 0.53300005 4283527821
0.020996155 0.047508989 0.53300005 4282277754
0.021877738 0.047598124 0.53400004 4280436320
0.022719925 0.047598124 0.53400004 4279317839
0.023562115 0.047598124 0.53400004 4279383115
0.024404304 0.047598124 0.53400004 4280041044
0.025293771 0.047687262 0.53500003 4281620068
0.026137536 0.047687262 0.53500003 4283988872
0.026981303 0.047687262 0.53500003 4288263874
0.027825069 0.047687262 0.53500003 4289908699
0.028668836 0.047687262 0.53500003 4289052106
-0.043730948 0.048351683 0.53300005 4289637025
-0.042809866 0.048260968 0.53200001 4287663235
-0.041891936 0.04817025 0.53100002 4290821560
-0.04105448 0.04817025 0.53100002 4290295216
-0.040141288 0.048079535 0.53000003 4288255382
-0.039305408 0.048079535 0.53000003 4287005315
-0.03839694 0.047988821 0.52900004 4286610044
-0.037491631 0.047898103 0.528 4285425770
-0.036658902 0.047898103 0.528 4284506202
-0.035690472 0.04771667 0.52600002 4287795852
-0.034860902 0.04771667 0.52600002 4291414978
-0.034031328 0.04771667 0.52600002 4292665045
-0.03313864 0.047625951 0.52500004 4292797147
-0.032310642 0.047625951 0.52500004 4291152322
-0.031422682 0.047535237 0.52400005 4286480770
-0.030537874 0.047444522 0.523 4283585878
-0.029713033 0.047444522 0.523 4279966761
-0.028832959 0.047353804 0.52200001 4279900968
-0.028009696 0.047353804 0.52200001 4283125595
-0.02713435 0.04726309 0.52100003 4284967799
-0.026312664 0.04726309 0.52100003 4286415497
-0.025442049 0.047172375 0.52000004 4290889421
-0.024574591 0.047081657 0.51900005 4293061353
-0.023756059 0.047081657 0.51900005 4293785076
-0.022893332 0.046990942 0.51800001 4293521906
-0.022076378 0.046990942 0.51800001 4292206046
-0.021259421 0.046990942 0.51800001 4288062116
-0.020403003 0.046900228 0.51700002 4286154119
-0.019587627 0.046900228 0.51700002 4285890947
-0.018772248 0.046900228 0.51700002 4285298810
-0.017956872 0.046900228 0.51700002 4290693586
-0.017141493 0.046900228 0.51700002 4293654271
-0.016326116 0.046900228 0.51700002 4293851900
-0.015510738 0.046900228 0.51700002 4293983486
-0.01469536 0.046900228 0.51700002 4291746268
-0.013879983 0.046900228 0.51700002 4287404186
-0.013064605 0.046900228 0.51700002 4286022283
-0.012249227 0.046900228 0.51700002 4288193452
-0.011433849 0.046900228 0.51700002 4285692555
-0.010618472 0.046900228 0.51700002 4280626494
-0.009803094 0.046900228 0.51700002 4280823355
-0.0089877164 0.046900228 0.51700002 4288323757
-0.0081723388 0.046900228 0.51700002 4293851389
-0.0073569613 0.046900228 0.51700002 4294246143
-0.0065415837 0.046900228 0.51700002 4293852154
-0.0057262061 0.046900228 0.51700002 4293786361
-0.0049108285 0.046900228 0.51700002 4293984255
-0.004095451 0.046900228 0.51700002 4294049791
-0.0032800734 0.046900228 0.51700002 4292473077
-0.0024646956 0.046900228 0.51700002 4285762191
-0.0016493181 0.046900228 0.51700002 4280894293
-0.00083394058 0.046900228 0.51700002 4279446847
-1.856298e-05 0.046900228 0.51700002 4282079348
0.00079835585 0.046990942 0.51800001 4282539899
0.0016153106 0.046990942 0.51800001 4282737276
0.0024322653 0.046990942 0.51800001 4282605690
0.0032492199 0.046990942 0.51800001 4282409590
0.0040740245 0.047081657 0.51900005 4282343797
0.0048925565 0.047081657 0.51900005 4282146417
0.0057110884 0.047081657 0.51900005 4281883246
0.0065296204 0.047081657 0.51900005 4281686637
0.0073481523 0.047081657 0.51900005 4280699742
0.0081824195 0.047172375 0.52000004 4279318089
0.0090025282 0.047172375 0.52000004 4279186503
0.0098226378 0.047172375 0.52000004 4280304732
0.010663213 0.04726309 0.52100003 4282541694
0.011506944 0.047353804 0.52200001 4281095281
0.012353827 0.047444522 0.523 4279779421
0.013229065 0.047625951 0.52500004 4280040538
0.014083835 0.04771667 0.52600002 4281685363
0.014970112 0.047898103 0.528 4282868864
0.015802838 0.047898103 0.528 4282934914
0.01666707 0.047988821 0.52900004 4284645275
0.017534457 0.048079535 0.53000003 4284316310
0.018404998 0.04817025 0.53100002 4283066243
0.019278694 0.048260968 0.53200001 4282474106
0.02011773 0.048260968 0.53200001 4281489008
0.020956764 0.048260968 0.53200001 4280436320
0.021836767 0.048351683 0.53300005 4279449171
0.022677379 0.048351683 0.53300005 4280436066
0.023562115 0.048442397 0.53400004 4280765537
0.024404304 0.048442397 0.53400004 4284976289
0.025246492 0.048442397 0.53400004 4287609035
0.026088683 0.048442397 0.53400004 4288530393
0.026981303 0.048533116 0.53500003 4289713895
0.027825069 0.048533116 0.53500003 4288003021
0.028668836 0.048533116 0.53500003 4283724421
-0.043730948 0.049194377 0.53300005 4290360233
-0.042809866 0.049102079 0.53200001 4288583822
-0.04197083 0.049102079 0.53200001 4289439909
-0.04105448 0.049009781 0.53100002 4287202947
-0.040217023 0.049009781 0.53100002 4285032554
-0.039305408 0.048917484 0.53000003 4285492848
-0.03839694 0.048825189 0.52900004 4283584596
-0.037491631 0.048732888 0.528 4280953133
-0.036658902 0.048732888 0.528 4282795586
-0.035690472 0.048548296 0.52600002 4286808959
-0.034860902 0.048548296 0.52600002 4290098864
-0.034031328 0.048548296 0.52600002 4292401618
-0.03313864 0.048455998 0.52500004 4292927963
-0.032310642 0.048455998 0.52500004 4292467412
-0.031422682 0.048363701 0.52400005 4288718502
-0.030596264 0.048363701 0.52400005 4285297010
-0.029713033 0.048271406 0.523 4282007114
-0.028832959 0.048179105 0.52200001 4280362289
-0.028009696 0.048179105 0.52200001 4282994009
-0.02713435 0.048086811 0.52100003 4286481038
-0.026312664 0.048086811 0.52100003 4290230973
-0.025442049 0.047994513 0.52000004 4293257451
-0.024574591 0.047902215 0.51900005 4293850356
-0.023756059 0.047902215 0.51900005 4293521391
-0.022893332 0.047809917 0.51800001 4293324275
-0.022076378 0.047809917 0.51800001 4289639867
-0.021259421 0.047809917 0.51800001 4287140501
-0.020403003 0.047717623 0.51700002 4287995810
-0.019587627 0.047717623 0.51700002 4286812052
-0.018772248 0.047717623 0.51700002 4284969849
-0.017956872 0.047717623 0.51700002 4288060835
-0.017141493 0.047717623 0.51700002 4293784826
-0.016326116 0.047717623 0.51700002 4293851391
-0.015510738 0.047717623 0.51700002 4293785598
-0.01469536 0.047717623 0.51700002 4294246142
-0.013879983 0.047717623 0.51700002 4292074976
-0.013064605 0.047717623 0.51700002 4287601567
-0.012249227 0.047717623 0.51700002 4285956742
-0.011433849 0.047717623 0.51700002 4285298822
-0.010618472 0.047717623 0.51700002 4281746000
-0.009803094 0.047717623 0.51700002 4281088322
-0.0089877164 0.047717623 0.51700002 4287141022
-0.0081723388 0.047717623 0.51700002 4293720316
-0.0073569613 0.047717623 0.51700002 4294246399
-0.0065415837 0.047717623 0.51700002 4293786361
-0.0057262061 0.047717623 0.51700002 4293654775
-0.0049108285 0.047717623 0.51700002 4293918719
-0.004095451 0.047717623 0.51700002 4294049791
-0.0032800734 0.047717623 0.51700002 4292669173
-0.0024646956 0.047717623 0.51700002 4286089873
-0.0016493181 0.047717623 0.51700002 4279907398
-0.00083394058 0.047717623 0.51700002 4280433742
-1.856298e-05 0.047717623 0.51700002 4282078828
0.00079835585 0.047809917 0.51800001 4282473586
0.0016153106 0.047809917 0.51800001 4281948011
0.0024322653 0.047809917 0.51800001 4281487459
0.0032492199 0.047809917 0.51800001 4281948010
0.0040740245 0.047902215 0.51900005 4282474354
0.0048925565 0.047902215 0.51900005 4282145902
0.0057110884 0.047902215 0.51900005 4282014316
0.0065296204 0.047902215 0.51900005 4281423467
0.0073481523 0.047902215 0.51900005 4280897123
0.0081824195 0.047994513 0.52000004 4279450708
0.0090025282 0.047994513 0.52000004 4278858571
0.0098226378 0.047994513 0.52000004 4279318868
0.010663213 0.048086811 0.52100003 4282476932
0.011506944 0.048179105 0.52200001 4282937746
0.012353827 0.048271406 0.523 4283003539
0.013229065 0.048455998 0.52500004 4281620853
0.014083835 0.048548296 0.52600002 4282344576
0.014941758 0.048640594 0.52700001 4283395467
0.015802838 0.048732888 0.528 4283066502
0.01666707 0.048825189 0.52900004 4283066756
0.017534457 0.048917484 0.53000003 4282671998
0.018404998 0.049009781 0.53100002 4282080627
0.019242456 0.049009781 0.53100002 4281751406
0.02011773 0.049102079 0.53200001 4281423466
0.020956764 0.049102079 0.53200001 4281489258
0.021795798 0.049102079 0.53200001 4283989394
0.022677379 0.049194377 0.53300005 4286621115
0.02351799 0.049194377 0.53300005 4288397780
0.024404304 0.049286671 0.53400004 4289977068
0.025246492 0.049286671 0.53400004 4289385701
0.026088683 0.049286671 0.53400004 4288530392
0.026930872 0.049286671 0.53400004 4286360262
0.027825069 0.049378973 0.53500003 4281688959
0.028668836 0.049378973 0.53500003 4280569187
-0.043730948 0.050037067 0.53300005 4290886320
-0.042890336 0.050037067 0.53300005 4288715151
-0.04197083 0.04994319 0.53200001 4286216050
-0.04105448 0.049849309 0.53100002 4284110674
-0.040217023 0.049849309 0.53100002 4283123530
-0.039305408 0.049755435 0.53000003 4282005049
-0.03839694 0.049661558 0.52900004 4280162843
-0.037562639 0.049661558 0.52900004 4280754980
-0.036658902 0.049567677 0.528 4281806380
-0.035758328 0.0494738 0.52700001 4284964444
-0.034860902 0.049379922 0.52600002 4288123788
-0.034031328 0.049379922 0.52600002 4290623922
-0.03313864 0.049286041 0.52500004 4292599768
-0.032310642 0.049286041 0.52500004 4292468182
-0.031422682 0.049192164 0.52400005 4290232256
-0.030596264 0.049192164 0.52400005 4285100402
-0.029713033 0.049098287 0.523 4283323226
-0.028888192 0.049098287 0.523 4281020471
-0.028009696 0.049004406 0.52200001 4283849570
-0.027186431 0.049004406 0.52200001 4288586666
-0.026312664 0.048910528 0.52100003 4292468703
-0.025442049 0.048816651 0.52000004 4293060840
-0.024574591 0.048722774 0.51900005 4293389805
-0.023756059 0.048722774 0.51900005 4293455598
-0.022893332 0.048628896 0.51800001 4290692294
-0.022076378 0.048628896 0.51800001 4286744715
-0.021259421 0.048628896 0.51800001 4286087813
-0.020403003 0.048535019 0.51700002 4287206294
-0.019587627 0.048535019 0.51700002 4287666845
-0.018772248 0.048535019 0.51700002 4286285193
-0.017956872 0.048535019 0.51700002 4285035127
-0.017141493 0.048535019 0.51700002 4290035395
-0.016326116 0.048535019 0.51700002 4293851389
-0.015510738 0.048535019 0.51700002 4294311935
-0.01469536 0.048535019 0.51700002 4294049279
-0.013879983 0.048535019 0.51700002 4294180606
-0.013064605 0.048535019 0.51700002 4292141282
-0.012249227 0.048535019 0.51700002 4287930530
-0.011433849 0.048535019 0.51700002 4285364607
-0.010618472 0.048535019 0.51700002 4284180333
-0.009803094 0.048535019 0.51700002 4282140235
-0.0089877164 0.048535019 0.51700002 4287535261
-0.0081723388 0.048535019 0.51700002 4294114559
-0.0073569613 0.048535019 0.51700002 4294311935
-0.0065415837 0.048535019 0.51700002 4293917434
-0.0057262061 0.048535019 0.51700002 4293785848
-0.0049108285 0.048535019 0.51700002 4293984254
-0.004095451 0.048535019 0.51700002 4294180863
-0.0032800734 0.048535019 0.51700002 4292537841
-0.0024646956 0.048535019 0.51700002 4285366404
-0.0016493181 0.048535019 0.51700002 4279182391
-0.00083394058 0.048535019 0.51700002 4279643199
-1.856298e-05 0.048535019 0.51700002 4278656827
0.00079835585 0.048628896 0.51800001 4278722620
0.0016153106 0.048628896 0.51800001 4278854718
0.0024322653 0.048628896 0.51800001 4278986305
0.0032492199 0.048628896 0.51800001 4278921533
0.0040740245 0.048722774 0.51900005 4279579464
0.0048925565 0.048722774 0.51900005 4280171601
0.0057110884 0.048722774 0.51900005 4280171601
0.0065296204 0.048722774 0.51900005 4279909456
0.0073481523 0.048722774 0.51900005 4279843663
0.0081824195 0.048816651 0.52000004 4279515468
0.0090025282 0.048816651 0.52000004 4279054917
0.0098226378 0.048816651 0.52000004 4278989387
0.010663213 0.048910528 0.52100003 4281621108
0.011506944 0.049004406 0.52200001 4283397264
0.012353827 0.049098287 0.523 4282410370
0.013203866 0.049192164 0.52400005 4281488238
0.014057059 0.049286041 0.52500004 4281882996
0.014941758 0.0494738 0.52700001 4282933887
0.015802838 0.049567677 0.528 4283065473
0.016635563 0.049567677 0.528 4283131005
0.017501375 0.049661558 0.52900004 4282867833
0.018370338 0.049755435 0.53000003 4282144880
0.019242456 0.049849309 0.53100002 4284184463
0.020079913 0.049849309 0.53100002 4286160310
0.020917371 0.049849309 0.53100002 4288199894
0.021795798 0.04994319 0.53200001 4289386478
0.022634832 0.04994319 0.53200001 4289781492
0.02351799 0.050037067 0.53300005 4289651709
0.024358602 0.050037067 0.53300005 4288006884
0.025246492 0.050130945 0.53400004 4285639369
0.026088683 0.050130945 0.53400004 4282810270
0.026930872 0.050130945 0.53400004 4280704640
0.027825069 0.050224826 0.53500003 4280704897
0.028668836 0.050224826 0.53500003 4281559174
-0.042890336 0.050879762 0.53300005 4289570456
-0.042049725 0.050879762 0.53300005 4286150253
-0.041131798 0.050784301 0.53200001 4283386690
-0.040217023 0.05068884 0.53100002 4281807922
-0.039305408 0.050593384 0.53000003 4280163096
-0.038469527 0.050593384 0.53000003 4280032280
-0.037562639 0.050497927 0.52900004 4280229659
-0.036658902 0.050402462 0.528 4280293912
-0.035758328 0.050307006 0.52700001 4282728510
-0.034860902 0.050211549 0.52600002 4285360742
-0.034031328 0.050211549 0.52600002 4287268740
-0.033201758 0.050211549 0.52600002 4290888129
-0.032310642 0.050116085 0.52500004 4292664540
-0.031482648 0.050116085 0.52500004 4290693326
-0.030596264 0.050020628 0.52400005 4285035128
-0.029713033 0.049925171 0.523 4284441965
-0.028888192 0.049925171 0.523 4281744708
-0.028009696 0.04982971 0.52200001 4285033072
-0.027186431 0.04982971 0.52200001 4291217614
-0.026312664 0.04973425 0.52100003 4292928486
-0.025442049 0.049638793 0.52000004 4293125865
-0.024574591 0.049543332 0.51900005 4293520369
-0.023756059 0.049543332 0.51900005 4290954442
-0.022893332 0.049447872 0.51800001 4287203725
-0.022076378 0.049447872 0.51800001 4286348416
-0.021259421 0.049447872 0.51800001 4286810257
-0.020403003 0.049352415 0.51700002 4283981158
-0.019587627 0.049352415 0.51700002 4284902514
-0.018772248 0.049352415 0.51700002 4287468441
-0.017956872 0.049352415 0.51700002 4286876561
-0.017141493 0.049352415 0.51700002 4286942611
-0.016326116 0.049352415 0.51700002 4291350485
-0.015510738 0.049352415 0.51700002 4294311167
-0.01469536 0.049352415 0.51700002 4294508543
-0.013879983 0.049352415 0.51700002 4294311167
-0.013064605 0.049352415 0.51700002 4293983740
-0.012249227 0.049352415 0.51700002 4291286227
-0.011433849 0.049352415 0.51700002 4286812565
-0.010618472 0.049352415 0.51700002 4285694084
-0.009803094 0.049352415 0.51700002 4285496705
-0.0089877164 0.049352415 0.51700002 4288786355
-0.0081723388 0.049352415 0.51700002 4294246399
-0.0073569613 0.049352415 0.51700002 4294246399
-0.0065415837 0.049352415 0.51700002 4293786359
-0.0057262061 0.049352415 0.51700002 4293852152
-0.0049108285 0.049352415 0.51700002 4293984254
-0.004095451 0.049352415 0.51700002 4294180863
-0.0032800734 0.049352415 0.51700002 4292866806
-0.0024646956 0.049352415 0.51700002 4285169025
-0.0016493181 0.049352415 0.51700002 4279511102
-0.00083394058 0.049352415 0.51700002 4278918965
-1.8598885e-05 0.049447872 0.51800001 4279116348
0.00079835585 0.049447872 0.51800001 4279511106
0.0016153106 0.049447872 0.51800001 4279841356
0.0024322653 0.049447872 0.51800001 4280104528
0.0032492199 0.049447872 0.51800001 4279841353
0.0040740245 0.049543332 0.51900005 4279380802
0.0048925565 0.049543332 0.51900005 4279249471
0.0057110884 0.049543332 0.51900005 4279249471
0.0065296204 0.049543332 0.51900005 4279184191
0.0073623103 0.049638793 0.52000004 4279249727
0.0081824195 0.049638793 0.52000004 4279053631
0.0090025282 0.049638793 0.52000004 4278856252
0.0098415269 0.04973425 0.52100003 4278463041
0.010663213 0.04973425 0.52100003 4278726213
0.011506944 0.04982971 0.52200001 4279383632
0.012353827 0.049925171 0.523 4280041562
0.013203866 0.050020628 0.52400005 4281356903
0.014057059 0.050116085 0.52500004 4282541176
0.014913407 0.050211549 0.52600002 4284251020
0.015772907 0.050307006 0.52700001 4285237915
0.016635563 0.050402462 0.528 4286880682
0.01746829 0.050402462 0.528 4288196285
0.018335678 0.050497927 0.52900004 4289513174
0.019206217 0.050593384 0.53000003 4290039519
0.020079913 0.05068884 0.53100002 4289845224
0.020917371 0.05068884 0.53100002 4290042603
0.021795798 0.050784301 0.53200001 4288531172
0.022634832 0.050784301 0.53200001 4287544278
0.02351799 0.050879762 0.53300005 4285311692
0.024358602 0.050879762 0.53300005 4282548643
0.025246492 0.050975218 0.53400004 4280181642
0.026088683 0.050975218 0.53400004 4279260539
0.026930872 0.050975218 0.53400004 4279720320
0.027825069 0.051070679 0.53500003 4280706959
0.028668836 0.051070679 0.53500003 4281822867
-0.043977089 0.052013576 0.53600001 4291215537
-0.043051276 0.051916532 0.53500003 4290886572
-0.042049725 0.051722452 0.53300005 4288519055
-0.041131798 0.051625416 0.53200001 4284834647
-0.040292762 0.051625416 0.53200001 4281216806
-0.039379567 0.051528372 0.53100002 4280624669
-0.038469527 0.051431332 0.53000003 4280229911
-0.037562639 0.051334295 0.52900004 4280756255
-0.036728334 0.051334295 0.52900004 4281675304
-0.035826176 0.051237252 0.528 4282794042
-0.034927178 0.051140212 0.52700001 4284110415
-0.034031328 0.051043171 0.52600002 4285360739
-0.033201758 0.051043171 0.52600002 4287269514
-0.032310642 0.050946131 0.52500004 4291019715
-0.031422682 0.050849091 0.52400005 4291218386
-0.030596264 0.050849091 0.52400005 4287797150
-0.029713033 0.050752051 0.523 4286744973
-0.028888192 0.050752051 0.523 4284442218
-0.028009696 0.050655011 0.52200001 4285889151
-0.027186431 0.050655011 0.52200001 4292139486
-0.026312664 0.050557971 0.52100003 4293323244
-0.025490977 0.050557971 0.52100003 4292994279
-0.024574591 0.050363891 0.51900005 4290625475
-0.023756059 0.050363891 0.51900005 4287796632
-0.022893332 0.050266851 0.51800001 4287401619
-0.022076378 0.050266851 0.51800001 4288322722
-0.021259421 0.050266851 0.51800001 4285297014
-0.020442467 0.050266851 0.51800001 4281349434
-0.019625513 0.050266851 0.51800001 4280034089
-0.018808559 0.050266851 0.51800001 4284573806
-0.017991604 0.050266851 0.51800001 4288324775
-0.017174648 0.050266851 0.51800001 4287403673
-0.016357694 0.050266851 0.51800001 4287601565
-0.01554074 0.050266851 0.51800001 4291549145
-0.01469536 0.050169811 0.51700002 4294180351
-0.013879983 0.050169811 0.51700002 4294377471
-0.013064605 0.050169811 0.51700002 4294115071
-0.012249227 0.050169811 0.51700002 4292733419
-0.011433849 0.050169811 0.51700002 4287733665
-0.010618472 0.050169811 0.51700002 4285759875
-0.009803094 0.050169811 0.51700002 4290035906
-0.0089877164 0.050169811 0.51700002 4293259763
-0.0081723388 0.050169811 0.51700002 4294377471
-0.0073569613 0.050169811 0.51700002 4294114559
-0.0065415837 0.050169811 0.51700002 4293654260
-0.0057262061 0.050169811 0.51700002 4293785846
-0.0049108285 0.050169811 0.51700002 4294049789
-0.004095451 0.050169811 0.51700002 4294246399
-0.0032800734 0.050169811 0.51700002 4293326844
-0.0024646956 0.050169811 0.51700002 4286484372
-0.0016493181 0.050169811 0.51700002 4280037700
-0.00083394058 0.050169811 0.51700002 4279182391
-1.8598885e-05 0.050266851 0.51800001 4278854458
0.00079835585 0.050266851 0.51800001 4278986044
0.0016153106 0.050266851 0.51800001 4279116862
0.0024322653 0.050266851 0.51800001 4279182655
0.0032554925 0.050363891 0.51900005 4279051066
0.0040740245 0.050363891 0.51900005 4278656307
0.0048925565 0.050363891 0.51900005 4278786607
0.0057110884 0.050363891 0.51900005 4279049522
0.0065422012 0.050460931 0.52000004 4279313462
0.0073623103 0.050460931 0.52000004 4279576634
0.0081824195 0.050460931 0.52000004 4279446075
0.0090025282 0.050460931 0.52000004 4279577918
0.0098415269 0.050557971 0.52100003 4279514185
0.010663213 0.050557971 0.52100003 4280369750
0.011506944 0.050655011 0.52200001 4280502624
0.012353827 0.050752051 0.523 4282410365
0.013203866 0.050849091 0.52400005 4285238691
0.014057059 0.050946131 0.52500004 4288199376
0.014913407 0.051043171 0.52600002 4289777893
0.015772907 0.051140212 0.52700001 4290435823
0.016635563 0.051237252 0.528 4291551989
0.01746829 0.051237252 0.528 4291683574
0.018335678 0.051334295 0.52900004 4291420150
0.019169981 0.051334295 0.52900004 4289643739
0.020042097 0.051431332 0.53000003 4287016397
0.020917371 0.051528372 0.53100002 4285108401
0.021795798 0.051625416 0.53200001 4282085527
0.022634832 0.051625416 0.53200001 4282085784
0.02351799 0.051722452 0.53300005 4281694631
0.024404304 0.051819496 0.53400004 4280970652
0.025246492 0.051819496 0.53400004 4279524232
0.026088683 0.051819496 0.53400004 4279129475
0.026930872 0.051819496 0.53400004 4279853198
0.027825069 0.051916532 0.53500003 4280116113
0.028668836 0.051916532 0.53500003 4280309376
-0.043977089 0.052861009 0.53600001 4291149231
-0.043131746 0.052861009 0.53600001 4291412403
-0.042128615 0.05266377 0.53400004 4291150262
-0.041209113 0.052565146 0.53300005 4290229417
-0.040292762 0.052466523 0.53200001 4287532419
-0.039453726 0.052466523 0.53200001 4285229407
-0.038542107 0.052367907 0.53100002 4283782731
-0.037633646 0.052269284 0.53000003 4282532664
-0.036728334 0.05217066 0.52900004 4282532664
-0.035826176 0.052072041 0.528 4282795579
-0.034993451 0.052072041 0.528 4283913294
-0.034031328 0.051874794 0.52600002 4284965983
-0.033201758 0.051874794 0.52600002 4285163883
-0.032310642 0.051776174 0.52500004 4285492848
-0.031422682 0.051677555 0.52400005 4286414980
-0.030596264 0.051677555 0.52400005 4287270288
-0.029713033 0.051578935 0.523 4289573300
-0.028832959 0.051480312 0.52200001 4287665046
-0.028009696 0.051480312 0.52200001 4288256929
-0.027186431 0.051480312 0.52200001 4292533730
-0.026312664 0.051381692 0.52100003 4292072923
-0.025490977 0.051381692 0.52100003 4289178031
-0.024574591 0.051184446 0.51900005 4286941841
-0.023756059 0.051184446 0.51900005 4288652459
-0.022893332 0.051085826 0.51800001 4289639103
-0.022076378 0.051085826 0.51800001 4287994279
-0.021259421 0.051085826 0.51800001 4282665297
-0.020442467 0.051085826 0.51800001 4279309855
-0.019625513 0.051085826 0.51800001 4279441443
-0.018808559 0.051085826 0.51800001 4280033323
-0.017991604 0.051085826 0.51800001 4285429117
-0.017174648 0.051085826 0.51800001 4288916145
-0.016357694 0.051085826 0.51800001 4287601569
-0.01554074 0.051085826 0.51800001 4288259499
-0.014723784 0.051085826 0.51800001 4292140771
-0.01390683 0.051085826 0.51800001 4294246143
-0.013089875 0.051085826 0.51800001 4293917693
-0.012249227 0.050987206 0.51700002 4293851900
-0.011433849 0.050987206 0.51700002 4289970113
-0.010618472 0.050987206 0.51700002 4285890947
-0.009803094 0.050987206 0.51700002 4289707455
-0.0089877164 0.050987206 0.51700002 4294180863
-0.0081723388 0.050987206 0.51700002 4294311935
-0.0073569613 0.050987206 0.51700002 4293851641
-0.0065415837 0.050987206 0.51700002 4293654260
-0.0057262061 0.050987206 0.51700002 4293720053
-0.0049108285 0.050987206 0.51700002 4293984252
-0.004095451 0.050987206 0.51700002 4294246399
-0.0032800734 0.050987206 0.51700002 4293328125
-0.0024646956 0.050987206 0.51700002 4287143583
-0.0016493181 0.050987206 0.51700002 4282077533
-0.00083394058 0.050987206 0.51700002 4279774778
-1.8598885e-05 0.051085826 0.51800001 4279643202
0.00079835585 0.051085826 0.51800001 4279840581
0.0016153106 0.051085826 0.51800001 4279709767
0.0024322653 0.051085826 0.51800001 4279709767
0.0032554925 0.051184446 0.51900005 4280301386
0.0040740245 0.051184446 0.51900005 4280498765
0.0048925565 0.051184446 0.51900005 4280827726
0.0057220925 0.051283069 0.52000004 4281090898
0.0065422012 0.051283069 0.52000004 4283260526
0.0073623103 0.051283069 0.52000004 4285036937
0.0081824195 0.051283069 0.52000004 4286419357
0.0090198405 0.051381692 0.52100003 4287537838
0.0098415269 0.051381692 0.52100003 4287998651
0.01068368 0.051480312 0.52200001 4288591045
0.011506944 0.051480312 0.52200001 4288723920
0.012353827 0.051578935 0.523 4289447643
0.013203866 0.051677555 0.52400005 4289908964
0.014030283 0.051677555 0.52400005 4290435307
0.014885054 0.051776174 0.52500004 4290566375
0.015742978 0.051874794 0.52600002 4290566376
0.016604057 0.051973417 0.52700001 4291682799
0.01746829 0.052072041 0.528 4292406522
0.018301016 0.052072041 0.528 4290301920
0.019169981 0.05217066 0.52900004 4283130484
0.020042097 0.052269284 0.53000003 4281557120
0.020917371 0.052367907 0.53100002 4280175724
0.021795798 0.052466523 0.53200001 4279453819
0.022634832 0.052466523 0.53200001 4279848834
0.02351799 0.052565146 0.53300005 4279589519
0.024404304 0.05266377 0.53400004 4279195017
0.025246492 0.05266377 0.53400004 4279326858
0.026088683 0.05266377 0.53400004 4279590030
0.026981303 0.052762385 0.53500003 4280445337
0.027825069 0.052762385 0.53500003 4280313751
0.028668836 0.052762385 0.53500003 4279848824
-0.046008576 0.054109257 0.54000002 4291148201
-0.044989679 0.053908847 0.53800005 4291213994
-0.043977089 0.053708445 0.53600001 4291215281
-0.043131746 0.053708445 0.53600001 4290426022
-0.042207509 0.053608242 0.53500003 4291348156
-0.041286428 0.053508043 0.53400004 4291413949
-0.040368501 0.05340784 0.53300005 4291348924
-0.039453726 0.053307634 0.53200001 4291019959
-0.038614694 0.053307634 0.53200001 4290625458
-0.03770465 0.053207438 0.53100002 4290428079
-0.036797766 0.053107232 0.53000003 4289178012
-0.035894033 0.053007029 0.52900004 4287270016
-0.034993451 0.05290683 0.528 4285427813
-0.034096029 0.052806627 0.52700001 4285098848
-0.033201758 0.05270642 0.52600002 4284967781
-0.032310642 0.052606221 0.52500004 4285625454
-0.031422682 0.052506018 0.52400005 4285954428
-0.030596264 0.052506018 0.52400005 4287401874
-0.029713033 0.052405816 0.523 4291152075
-0.028832959 0.052305616 0.52200001 4290230973
-0.028009696 0.052305616 0.52200001 4288126367
-0.027186431 0.052305616 0.52200001 4287731609
-0.026312664 0.05220541 0.52100003 4286678151
-0.025490977 0.05220541 0.52100003 4286349186
-0.024621939 0.052105207 0.52000004 4287335829
-0.023756059 0.052005008 0.51900005 4289506998
-0.022937527 0.052005008 0.51900005 4288782504
-0.022076378 0.051904805 0.51800001 4283782492
-0.021259421 0.051904805 0.51800001 4279898395
-0.020442467 0.051904805 0.51800001 4280161567
-0.019625513 0.051904805 0.51800001 4279964701
-0.018808559 0.051904805 0.51800001 4278714891
-0.017991604 0.051904805 0.51800001 4280426276
-0.017174648 0.051904805 0.51800001 4286413183
-0.016357694 0.051904805 0.51800001 4288914859
-0.01554074 0.051904805 0.51800001 4287598999
-0.014723784 0.051904805 0.51800001 4288521125
-0.01390683 0.051904805 0.51800001 4292534498
-0.013089875 0.051904805 0.51800001 4294245375
-0.01227292 0.051904805 0.51800001 4294443007
-0.011455965 0.051904805 0.51800001 4292929515
-0.010618472 0.051804602 0.51700002 4287863454
-0.009803094 0.051804602 0.51700002 4289311411
-0.0089877164 0.051804602 0.51700002 4294311422
-0.0081723388 0.051804602 0.51700002 4294443007
-0.0073569613 0.051804602 0.51700002 4294114043
-0.0065415837 0.051804602 0.51700002 4293916662
-0.0057262061 0.051804602 0.51700002 4293982455
-0.0049108285 0.051804602 0.51700002 4294115324
-0.004095451 0.051804602 0.51700002 4294377471
-0.0032800734 0.051804602 0.51700002 4293853183
-0.0024646956 0.051804602 0.51700002 4290037707
-0.0016525084 0.051904805 0.51800001 4284116864
-0.00083555363 0.051904805 0.51800001 4284182656
-1.8598885e-05 0.051904805 0.51800001 4284118922
0.00079835585 0.051904805 0.51800001 4285237403
0.0016153106 0.051904805 0.51800001 4285566109
0.0024369608 0.052005008 0.51900005 4286355626
0.0032554925 0.052005008 0.51900005 4287801782
0.0040740245 0.052005008 0.51900005 4288657347
0.0049019833 0.052105207 0.52000004 4288854726
0.0057220925 0.052105207 0.52000004 4289117898
0.0065422012 0.052105207 0.52000004 4289840851
0.0073623103 0.052105207 0.52000004 4290235865
0.0081824195 0.052105207 0.52000004 4290368485
0.0090198405 0.05220541 0.52100003 4290499814
0.0098415269 0.05220541 0.52100003 4290172137
0.01068368 0.052305616 0.52200001 4289579743
0.011506944 0.052305616 0.52200001 4288922326
0.012353827 0.052405816 0.523 4288856790
0.013178669 0.052405816 0.523 4288987611
0.014030283 0.052506018 0.52400005 4288263887
0.014885054 0.052606221 0.52500004 4286684336
0.015713049 0.052606221 0.52500004 4286092199
0.01657255 0.05270642 0.52600002 4288129982
0.017435204 0.052806627 0.52700001 4291945719
0.018301016 0.05290683 0.528 4288197065
0.019133741 0.05290683 0.528 4281815144
0.020004284 0.053007029 0.52900004 4279057246
0.020917371 0.053207438 0.53100002 4279057247
0.021754829 0.053207438 0.53100002 4278599796
0.022634832 0.053307634 0.53200001 4278336881
0.02351799 0.05340784 0.53300005 4278271343
0.024404304 0.053508043 0.53400004 4278271857
0.025246492 0.053508043 0.53400004 4278273140
0.026137536 0.053608242 0.53500003 4278997891
0.026981303 0.053608242 0.53500003 4280511132
0.027825069 0.053608242 0.53500003 4280576925
0.02872242 0.053708445 0.53600001 4280243583
-0.046008576 0.054963019 0.54000002 4291279787
-0.044989679 0.054759447 0.53800005 4291345837
-0.044059135 0.054657668 0.537 4290228643
-0.043212213 0.054657668 0.537 4285623134
-0.042286403 0.054555882 0.53600001 4286611830
-0.041363742 0.054454096 0.53500003 4289638308
-0.040444236 0.054352317 0.53400004 4290756537
-0.039527889 0.054250531 0.53300005 4291809224
-0.038687278 0.054250531 0.53300005 4292204233
-0.037775658 0.054148745 0.53200001 4292467405
-0.036867194 0.054046966 0.53100002 4292401612
-0.035961885 0.053945184 0.53000003 4292270026
-0.035059728 0.053843398 0.52900004 4291875270
-0.034160726 0.053741619 0.528 4291019961
-0.033201758 0.053538047 0.52600002 4290296241
-0.032310642 0.053436268 0.52500004 4289704103
-0.031482648 0.053436268 0.52500004 4288914593
-0.030596264 0.053334482 0.52400005 4289506730
-0.029713033 0.053232696 0.523 4292598747
-0.028832959 0.053130917 0.52200001 4291414473
-0.028009696 0.053130917 0.52200001 4287138699
-0.027186431 0.053130917 0.52200001 4285757045
-0.026312664 0.053029131 0.52100003 4285691772
-0.025490977 0.053029131 0.52100003 4285889152
-0.024621939 0.052927345 0.52000004 4284507762
-0.023756059 0.052825566 0.51900005 4284770678
-0.022937527 0.052825566 0.51900005 4282795861
-0.022118995 0.052825566 0.51900005 4279506211
-0.021259421 0.05272378 0.51800001 4278715666
-0.020442467 0.05272378 0.51800001 4280426028
-0.019625513 0.05272378 0.51800001 4280097576
-0.018808559 0.05272378 0.51800001 4279702818
-0.017991604 0.05272378 0.51800001 4279965990
-0.017207803 0.052825566 0.51900005 4280689713
-0.016389271 0.052825566 0.51900005 4284375409
-0.01557074 0.052825566 0.51900005 4286086028
-0.014723784 0.05272378 0.51800001 4285033594
-0.01390683 0.05272378 0.51800001 4287665313
-0.013089875 0.05272378 0.51800001 4291810785
-0.01227292 0.05272378 0.51800001 4293718782
-0.011455965 0.05272378 0.51800001 4292863724
-0.010639011 0.05272378 0.51800001 4289508280
-0.0098220557 0.05272378 0.51800001 4289837498
-0.0089877164 0.052621994 0.51700002 4293916664
-0.0081723388 0.052621994 0.51700002 4294508287
-0.0073569613 0.052621994 0.51700002 4294310909
-0.0065415837 0.052621994 0.51700002 4294113528
-0.0057262061 0.052621994 0.51700002 4294113528
-0.0049108285 0.052621994 0.51700002 4294114811
-0.004095451 0.052621994 0.51700002 4294377471
-0.003286418 0.05272378 0.51800001 4294311935
-0.002469463 0.05272378 0.51800001 4292799471
-0.0016525084 0.05272378 0.51800001 4290630110
-0.00083555363 0.05272378 0.51800001 4289511629
-1.8598885e-05 0.05272378 0.51800001 4289446098
0.00079835585 0.05272378 0.51800001 4289972441
0.0016184289 0.052825566 0.51900005 4290367967
0.0024369608 0.052825566 0.51900005 4290828518
0.0032554925 0.052825566 0.51900005 4291420137
0.0040818742 0.052927345 0.52000004 4292012274
0.0049019833 0.052927345 0.52000004 4291091173
0.0057220925 0.052927345 0.52000004 4290038484
0.0065422012 0.052927345 0.52000004 4289577935
0.0073623103 0.052927345 0.52000004 4289117384
0.0081981542 0.053029131 0.52100003 4288393924
0.0090198405 0.053029131 0.52100003 4287801786
0.0098604169 0.053130917 0.52200001 4286815409
0.01068368 0.053130917 0.52200001 4285170841
0.011506944 0.053130917 0.52200001 4283987595
0.012353827 0.053232696 0.523 4283593093
0.013178669 0.053232696 0.523 4283988110
0.014030283 0.053334482 0.52400005 4284185489
0.014856701 0.053334482 0.52400005 4283657858
0.015713049 0.053436268 0.52500004 4283526272
0.01657255 0.053538047 0.52600002 4287142314
0.017435204 0.053639833 0.52700001 4291813616
0.018301016 0.053741619 0.528 4287802306
0.019133741 0.053741619 0.528 4280301904
0.020004284 0.053843398 0.52900004 4278530907
0.020917371 0.054046966 0.53100002 4278267735
0.021754829 0.054046966 0.53100002 4278202984
0.022634832 0.054148745 0.53200001 4278203499
0.02351799 0.054250531 0.53300005 4278204268
0.024404304 0.054352317 0.53400004 4278204268
0.025293771 0.054454096 0.53500003 4278205550
0.026137536 0.054454096 0.53500003 4278271343
0.026981303 0.054454096 0.53500003 4280444569
0.027825069 0.054454096 0.53500003 4280905377
0.02872242 0.054555882 0.53600001 4280638854
-0.046264179 0.05612687 0.54300004 4291411371
-0.044989679 0.055610046 0.53800005 4291542958
-0.044059135 0.055506684 0.537 4289965472
-0.043212213 0.055506684 0.537 4285097047
-0.042365294 0.055506684 0.537 4281612336
-0.041441061 0.055403318 0.53600001 4284046421
-0.040519975 0.055299953 0.53500003 4286348413
-0.039602049 0.055196591 0.53400004 4289045926
-0.038759861 0.055196591 0.53400004 4290954174
-0.037775658 0.054989859 0.53200001 4291546312
-0.036867194 0.054886498 0.53100002 4292401616
-0.035961885 0.054783132 0.53000003 4292598995
-0.035059728 0.054679766 0.52900004 4292862424
-0.034160726 0.054576404 0.528 4292862167
-0.033201758 0.054369673 0.52600002 4292796379
-0.032372184 0.054369673 0.52600002 4292796379
-0.031482648 0.054266311 0.52500004 4292599260
-0.030596264 0.054162946 0.52400005 4292665310
-0.029713033 0.05405958 0.523 4292928482
-0.028832959 0.053956218 0.52200001 4292533724
-0.028009696 0.053956218 0.52200001 4289442223
-0.027186431 0.053956218 0.52200001 4288981672
-0.026312664 0.053852852 0.52100003 4289441712
-0.025490977 0.053852852 0.52100003 4286086012
-0.024621939 0.053749487 0.52000004 4282270793
-0.023756059 0.053646125 0.51900005 4281152055
-0.022937527 0.053646125 0.51900005 4279835425
-0.022118995 0.053646125 0.51900005 4279769376
-0.021300463 0.053646125 0.51900005 4280424739
-0.020442467 0.053542759 0.51800001 4280227360
-0.019625513 0.053542759 0.51800001 4280095774
-0.018844867 0.053646125 0.51900005 4280161310
-0.018026335 0.053646125 0.51900005 4280030749
-0.017207803 0.053646125 0.51900005 4280228128
-0.016389271 0.053646125 0.51900005 4280624682
-0.01557074 0.053646125 0.51900005 4282927181
-0.014752208 0.053646125 0.51900005 4284375653
-0.013933676 0.053646125 0.51900005 4285362292
-0.013089875 0.053542759 0.51800001 4286218373
-0.01227292 0.053542759 0.51800001 4289244851
-0.011455965 0.053542759 0.51800001 4292664549
-0.010639011 0.053542759 0.51800001 4292138205
-0.0098220557 0.053542759 0.51800001 4290955466
-0.0089877164 0.053439394 0.51700002 4294113530
-0.0081723388 0.053439394 0.51700002 4294442493
-0.0073569613 0.053439394 0.51700002 4293981942
-0.0065415837 0.053439394 0.51700002 4293981942
-0.0057262061 0.053439394 0.51700002 4294113528
-0.0049108285 0.053439394 0.51700002 4294180604
-0.0041033728 0.053542759 0.51800001 4294377471
-0.003286418 0.053542759 0.51800001 4294246399
-0.002469463 0.053542759 0.51800001 4291746528
-0.0016525084 0.053542759 0.51800001 4287010725
-0.00083555363 0.053542759 0.51800001 4286221209
-1.863479e-05 0.053646125 0.51900005 4286025115
0.00079989707 0.053646125 0.51900005 4288722628
0.0016184289 0.053646125 0.51900005 4290696668
0.0024369608 0.053646125 0.51900005 4292275700
0.0032617652 0.053749487 0.52000004 4293459454
0.0040818742 0.053749487 0.52000004 4293459710
0.0049019833 0.053749487 0.52000004 4291288551
0.0057220925 0.053749487 0.52000004 4287209385
0.0065547824 0.053852852 0.52100003 4284841100
0.0073764683 0.053852852 0.52100003 4284117378
0.0081981542 0.053852852 0.52100003 4282934909
0.0090198405 0.053852852 0.52100003 4283527045
0.0098604169 0.053956218 0.52200001 4283922320
0.01068368 0.053956218 0.52200001 4283593612
0.011506944 0.053956218 0.52200001 4283264649
0.012353827 0.05405958 0.523 4283593614
0.013178669 0.05405958 0.523 4284053651
0.014030283 0.054162946 0.52400005 4284185236
0.014856701 0.054162946 0.52400005 4284052619
0.015713049 0.054266311 0.52500004 4283921033
0.01657255 0.054369673 0.52600002 4287339442
0.017435204 0.054473039 0.52700001 4291747317
0.018301016 0.054576404 0.528 4287210431
0.019133741 0.054576404 0.528 4280960097
0.020004284 0.054679766 0.52900004 4279452524
0.020917371 0.054886498 0.53100002 4278663266
0.021795798 0.054989859 0.53200001 4278202209
0.022677379 0.055093225 0.53300005 4278204523
0.023562115 0.055196591 0.53400004 4278536828
0.024404304 0.055196591 0.53400004 4278208120
0.025293771 0.055299953 0.53500003 4278205549
0.026137536 0.055299953 0.53500003 4278206320
0.027031735 0.055403318 0.53600001 4280115091
0.027877077 0.055403318 0.53600001 4280509849
0.028776009 0.055506684 0.537 4279783801
-0.046008576 0.056670539 0.54000002 4291280555
-0.044989679 0.056460641 0.53800005 4291609521
-0.044141181 0.056460641 0.53800005 4290361259
-0.043212213 0.0563557 0.537 4285032026
-0.042365294 0.0563557 0.537 4281744441
-0.041441061 0.056250755 0.53600001 4280296996
-0.040595718 0.056250755 0.53600001 4281875261
-0.039602049 0.056040864 0.53400004 4283059536
-0.038759861 0.056040864 0.53400004 4285427312
-0.037846666 0.055935919 0.53300005 4287269516
-0.036936622 0.05583097 0.53200001 4288848028
-0.036029734 0.055726029 0.53100002 4290624182
-0.035126004 0.05562108 0.53000003 4291742151
-0.034225423 0.055516135 0.52900004 4292334288
-0.033328 0.055411194 0.528 4292664023
-0.032372184 0.055201296 0.52600002 4293124317
-0.031482648 0.055096354 0.52500004 4293059294
-0.030596264 0.054991409 0.52400005 4292993501
-0.029713033 0.05488646 0.523 4292796379
-0.028888192 0.05488646 0.523 4292927965
-0.028009696 0.054781519 0.52200001 4292534494
-0.027186431 0.054781519 0.52200001 4292468701
-0.026312664 0.054676574 0.52100003 4292468703
-0.025490977 0.054676574 0.52100003 4290823878
-0.024621939 0.054571625 0.52000004 4287008143
-0.023801832 0.054571625 0.52000004 4284047715
-0.022937527 0.054466683 0.51900005 4283322457
-0.022118995 0.054466683 0.51900005 4282203976
-0.021300463 0.054466683 0.51900005 4282071364
-0.020481931 0.054466683 0.51900005 4281939778
-0.019663399 0.054466683 0.51900005 4282005571
-0.018844867 0.054466683 0.51900005 4282071364
-0.018026335 0.054466683 0.51900005 4282334536
-0.017207803 0.054466683 0.51900005 4282597708
-0.016389271 0.054466683 0.51900005 4282335308
-0.01557074 0.054466683 0.51900005 4282598481
-0.014752208 0.054466683 0.51900005 4284440684
-0.013933676 0.054466683 0.51900005 4285822594
-0.013115144 0.054466683 0.51900005 4285757315
-0.01227292 0.054361735 0.51800001 4286086280
-0.011455965 0.054361735 0.51800001 4288258212
-0.010639011 0.054361735 0.51800001 4290692297
-0.0098220557 0.054361735 0.51800001 4292205533
-0.0090051014 0.054361735 0.51800001 4294376702
-0.0081881462 0.054361735 0.51800001 4294442495
-0.0073711919 0.054361735 0.51800001 4293916151
-0.0065415837 0.054256789 0.51700002 4294047737
-0.0057262061 0.054256789 0.51700002 4294113530
-0.0049203276 0.054361735 0.51800001 4294245629
-0.0041033728 0.054361735 0.51800001 4294574079
-0.003286418 0.054361735 0.51800001 4294115071
-0.002469463 0.054361735 0.51800001 4289312187
-0.0016525084 0.054361735 0.51800001 4285366153
-0.00083716668 0.054466683 0.51900005 4284379257
-1.863479e-05 0.054466683 0.51900005 4286089621
0.00079989707 0.054466683 0.51900005 4289905615
0.0016184289 0.054466683 0.51900005 4292340719
0.0024416563 0.054571625 0.52000004 4293852926
0.0032617652 0.054571625 0.52000004 4294049791
0.0040818742 0.054571625 0.52000004 4294049791
0.0049019833 0.054571625 0.52000004 4293655550
0.0057330965 0.054676574 0.52100003 4289510853
0.0065547824 0.054676574 0.52100003 4284709255
0.0073764683 0.054676574 0.52100003 4283722360
0.0081981542 0.054676574 0.52100003 4283527046
0.0090371538 0.054781519 0.52200001 4284184976
0.0098604169 0.054781519 0.52200001 4284449691
0.01068368 0.054781519 0.52200001 4284581277
0.011528987 0.05488646 0.523 4284581277
0.012353827 0.05488646 0.523 4284712863
0.013178669 0.05488646 0.523 4285370025
0.014030283 0.054991409 0.52400005 4285567404
0.014885054 0.055096354 0.52500004 4284907927
0.015713049 0.055096354 0.52500004 4284315790
0.01657255 0.055201296 0.52600002 4288260543
0.017435204 0.055306245 0.52700001 4291747571
0.018301016 0.055411194 0.528 4287144637
0.019133741 0.055411194 0.528 4281618025
0.020042097 0.05562108 0.53000003 4279849083
0.020917371 0.055726029 0.53100002 4280704393
0.021795798 0.05583097 0.53200001 4278273401
0.022677379 0.055935919 0.53300005 4278206066
0.023562115 0.056040864 0.53400004 4278209663
0.024450004 0.056145806 0.53500003 4278275714
0.025293771 0.056145806 0.53500003 4278206066
0.026137536 0.056145806 0.53500003 4278205552
0.027031735 0.056250755 0.53600001 4279193731
0.027929088 0.0563557 0.537 4280049296
0.028829595 0.056460641 0.53800005 4278994025
-0.046008576 0.057524297 0.54000002 4291412141
-0.045073304 0.057417769 0.53900003 4291543984
-0.044141181 0.057311241 0.53800005 4290163880
-0.043292683 0.057311241 0.53800005 4285887335
-0.042365294 0.05720472 0.537 4282664776
-0.041441061 0.057098191 0.53600001 4281809724
-0.040595718 0.057098191 0.53600001 4282467145
-0.039676212 0.056991663 0.53500003 4282927696
-0.038759861 0.056885138 0.53400004 4283321937
-0.037846666 0.05677861 0.53300005 4282992973
-0.036936622 0.056672081 0.53200001 4283123528
-0.036029734 0.05656556 0.53100002 4284176216
-0.035126004 0.056459032 0.53000003 4285031268
-0.034225423 0.056352504 0.52900004 4286741629
-0.033328 0.056245979 0.528 4288649880
-0.032372184 0.056032922 0.52600002 4290294705
-0.031482648 0.055926401 0.52500004 4291546059
-0.030596264 0.055819873 0.52400005 4292532953
-0.029713033 0.055713344 0.523 4292534496
-0.028888192 0.055713344 0.523 4292666082
-0.028009696 0.05560682 0.52200001 4292732388
-0.027186431 0.05560682 0.52200001 4292732388
-0.026363168 0.05560682 0.52200001 4292929769
