# .PCD v0.7 - Point Cloud Data file format
VERSION 0.7
FIELDS x y z rgb
SIZE 4 4 4 4
TYPE F F F U
COUNT 1 1 1 1
WIDTH 378
HEIGHT 1
VIEWPOINT 0 0 0 1 0 0 0
POINTS 378
DATA ascii
-0.11279803 0.13393085 0.48812509 4294770681
-0.082473613 0.13384964 0.48899999 4294836217
-0.070921756 0.13202004 0.48866668 4294836217
-0.063523896 0.13273971 0.48720008 4294836217
-0.054325219 0.13343261 0.48791477 4294836217
-0.045629527 0.13303398 0.48694667 4294770681
-0.034762993 0.13382335 0.48621911 4294770681
-0.028760949 0.13249737 0.48337039 4294836217
-0.0026950259 0.13253389 0.48720384 4294836217
0.0052273315 0.13268255 0.48614669 4294836217
0.015182215 0.13344991 0.48580837 4294836217
0.024298146 0.13480908 0.48712513 4294836217
0.034951266 0.13481189 0.48670813 4294770681
0.047408797 0.13595524 0.48807698 4294836217
0.054800715 0.13555032 0.48761797 4294770681
0.065156311 0.13643862 0.48728544 4294770681
0.074755535 0.13555881 0.48514664 4294770681
0.083077677 0.13384236 0.48402968 4294770681
0.11689032 0.13422246 0.48470947 4294770681
0.12081448 0.1336014 0.48460001 4294770681
0.068966337 0.14013602 0.48600003 4294901753
0.070499308 0.14013602 0.48600003 4294901753
-0.11065045 0.12994628 0.49400002 4294901753
-0.1074641 0.12968475 0.4966 4294901753
-0.09092553 0.12948921 0.49637502 4294836217
-0.085253358 0.12946647 0.49572089 4294836217
-0.079552673 0.12986098 0.49766669 4294770681
-0.060916465 0.1298604 0.49716666 4294836217
-0.055313677 0.12940268 0.49248487 4294836217
-0.04586231 0.12945567 0.49525529 4294836217
-0.039523464 0.12986098 0.49766669 4294836217
-0.0009107989 0.12903287 0.49585709 4294836217
0.0046625999 0.12880172 0.49782693 4294836217
0.010821437 0.12973806 0.49800006 4294836217
0.029494181 0.12968364 0.49900001 4294836217
0.035688989 0.12976487 0.49648505 4294836217
0.043135542 0.12956776 0.49622726 4294836217
0.057344362 0.12942366 0.49752632 4294770681
0.060748734 0.12952799 0.49780002 4294770681
0.1091213 0.12952796 0.49750003 4294770681
0.11480793 0.12887259 0.49652636 4294770681
0.12457888 0.12903561 0.49780002 4294770681
-0.11095247 0.13262811 0.49188894 4294836217
-0.10529421 0.13304813 0.49461746 4294836217
-0.095260426 0.13222842 0.49483046 4294770681
-0.084694184 0.13163342 0.49124596 4294770681
-0.075747587 0.13161412 0.49465808 4294770681
-0.0639745 0.13141844 0.49522501 4294836217
-0.056379132 0.13089669 0.49051842 4294836217
-0.043654129 0.13048255 0.49131995 4294836217
-0.034929395 0.13144805 0.49329311 4294836217
-0.027589431 0.13209887 0.49862507 4294836217
-0.0015642669 0.13042066 0.49088892 4294836217
0.0052032336 0.13073467 0.49276075 4294836217
0.014707077 0.13124435 0.49408516 4294836217
0.025794417 0.1323456 0.49427846 4294836217
0.034069221 0.13161741 0.49195373 4294836217
0.044696473 0.13323121 0.49229449 4294770681
0.054951902 0.13161218 0.49295589 4294836217
0.064520352 0.1322912 0.49396047 4294770681
0.075181194 0.13246107 0.49443752 4294770681
0.084209651 0.13236104 0.49552506 4294770681
0.095919102 0.13308024 0.49568412 4294770681
0.10490072 0.13181144 0.49447566 4294770681
0.11484512 0.13162428 0.4923825 4294770681
0.12455424 0.13130069 0.49445292 4294770681
-0.12721284 0.12877329 0.50428575 4294770681
-0.11092211 0.12904613 0.505 4294836217
-0.10485393 0.12845744 0.50704354 4294836217
-0.094413221 0.12902993 0.50545663 4294770680
-0.084785543 0.12859271 0.50471187 4294770679
-0.075184613 0.12853692 0.50403655 4294836216
-0.067462452 0.12895593 0.50608826 4294836216
-0.052521072 0.12904762 0.50563163 4294836217
-0.04458762 0.12772484 0.50453085 4294836215
-0.035658501 0.12867664 0.50582862 4294836216
-0.0239722 0.12917422 0.50765222 4294836216
-0.017288076 0.12797633 0.50574988 4294836214
0.0071894429 0.1275982 0.50282609 4294836217
0.012130285 0.12922069 0.50528574 4294836217
0.026937947 0.12917453 0.50497496 4294836217
0.03433736 0.12933166 0.50534791 4294836217
0.045423418 0.12888195 0.5041526 4294836217
0.054554276 0.12843049 0.5046429 4294836217
0.06384141 0.12928788 0.50591189 4294770681
0.075904936 0.12880115 0.50561529 4294770681
0.085020401 0.12887505 0.5062452 4294770681
0.093832403 0.12875624 0.50515997 4294770681
0.10881306 0.12954746 0.50370002 4294770681
0.11565244 0.12780659 0.50470442 4294770681
0.1247768 0.12758033 0.50365388 4294770681
-0.12799396 0.13057239 0.50120002 4294836217
-0.11169802 0.13018623 0.50400001 4294770681
-0.10235309 0.13060994 0.50333339 4294770681
-0.097289458 0.13080823 0.50160873 4294836217
-0.071356021 0.13056755 0.50050002 4294836217
-0.065325081 0.13064167 0.5035556 4294836217
-0.054535002 0.13050188 0.50833338 4294836217
-0.033320285 0.1306738 0.50234628 4294836217
-0.024506265 0.13169691 0.50316072 4294836217
-0.017397117 0.1322525 0.50397772 4294836217
0.016770579 0.13106576 0.50448787 4294836217
0.022295494 0.13080782 0.50395995 4294836217
0.037016887 0.13044456 0.505 4294836217
0.049365979 0.13020341 0.50100005 4294901753
0.051341336 0.13020341 0.50100005 4294901753
0.067307971 0.13094451 0.5029394 4294770681
0.074661009 0.13112758 0.50223923 4294770681
0.085291103 0.1311368 0.50219238 4294770681
0.09432923 0.13162079 0.50152004 4294770681
0.10364433 0.13095421 0.50523335 4294770681
-0.030508947 0.02738826 0.51900005 4292205274
-0.025333103 0.028023858 0.5185324 4292928997
-0.015155571 0.028097492 0.51593113 4293785076
-0.0051592221 0.028027436 0.51811785 4294311420
0.0055225515 0.027869912 0.51832348 4294508285
0.011215715 0.02857657 0.51890916 4294311422
-0.030304315 0.031491052 0.51900005 4288652966
-0.024751501 0.034956142 0.51732343 4288061347
-0.01505462 0.03493233 0.5152843 4289114294
-0.0049001495 0.034983329 0.51606995 4290036937
0.0052865278 0.035067841 0.51728415 4282672767
0.011082259 0.034551311 0.51886958 4284382354
-0.023039907 0.044565313 0.51825601 4287797664
-0.015093083 0.044826083 0.51662421 4287074714
-0.0049057067 0.044822481 0.51658255 4288260530
0.0047571291 0.044601444 0.51815921 4279843412
0.01062228 0.04092747 0.51900005 4279058785
-0.022079105 0.052574847 0.51860005 4284506730
-0.014523354 0.053748958 0.51831478 4288192165
-0.0053228592 0.054389939 0.51780123 4291943391
0.0024966702 0.051850509 0.51866663 4284577673
-0.011641787 0.0603747 0.51900005 4285364619
-0.0073854215 0.06062087 0.51900005 4292732392
-0.12698096 0.12819222 0.5154615 4294836217
-0.1172854 0.12847279 0.5163334 4294836217
-0.1024651 0.12680259 0.51273912 4294770680
-0.095302388 0.12782109 0.51430452 4294770677
-0.085933954 0.12753041 0.51409376 4294770673
-0.074573323 0.12680615 0.51444685 4294770673
-0.064917617 0.12797587 0.51555878 4294770676
-0.05555696 0.12914817 0.51613897 4294836215
-0.044257469 0.12709731 0.51580966 4294770669
-0.03438418 0.12625478 0.51248264 4294835946
-0.025331032 0.12758872 0.51382494 4294770413
-0.016018353 0.12722118 0.51341182 4294836204
0.0078270156 0.12829682 0.51700002 4294836216
0.015214806 0.12767135 0.51473743 4294836216
0.024093062 0.1274122 0.51466662 4294836217
0.035953496 0.12736072 0.51372015 4294836217
0.045012128 0.12644681 0.514404 4294836217
0.054998375 0.12608819 0.51518524 4294770681
0.065144464 0.12733753 0.51438379 4294770681
0.074611679 0.12742275 0.51519352 4294770681
0.085237838 0.12730785 0.51446772 4294770681
0.094287015 0.12701781 0.51493746 4294770681
0.10622677 0.12843226 0.51484299 4294770681
0.11455014 0.12757903 0.51572227 4294770681
0.12409192 0.12673958 0.51511359 4294770681
-0.12157062 0.1307786 0.51900005 4294770681
-0.061837852 0.13037442 0.51272732 4294836217
-0.058067456 0.1305992 0.51284611 4294836217
-0.024148442 0.13012341 0.51000005 4294836217
0.0057000839 0.13052662 0.51800001 4294836217
0.018073827 0.13025616 0.51142865 4294836217
0.021089191 0.13023578 0.51150006 4294836217
0.099719562 0.13012341 0.51000005 4294770681
0.10510085 0.13043734 0.51109105 4294770681
-0.034938268 0.027115857 0.52278465 4291875281
-0.027082266 0.025796751 0.52000004 4294113270
-0.0016588888 0.02612561 0.52000004 4294639612
0.0016215473 0.026207823 0.52000004 4294639612
0.015885543 0.026830008 0.52164936 4294441978
0.022147778 0.027305132 0.52724135 4292927968
-0.040065546 0.033770554 0.52900004 4289902261
-0.034816809 0.035028778 0.52339369 4286941836
-0.029378572 0.038457699 0.52000004 4279574575
0.016016563 0.035152115 0.52276474 4282867058
0.02179442 0.033743773 0.5277648 4284705657
-0.03452801 0.044834282 0.52538973 4286677633
-0.027935449 0.045813952 0.52112079 4282336849
0.0090947011 0.047634415 0.52005559 4279383885
0.014394794 0.044696562 0.52447665 4281423216
0.020421434 0.041297872 0.52900004 4282869891
-0.033029154 0.053748384 0.52648538 4287466891
-0.025977517 0.055796761 0.52180177 4289311159
-0.016862446 0.057839114 0.52000028 4290957786
-0.0011122618 0.058431052 0.52020001 4290890962
0.0059775673 0.055814855 0.52127343 4289642698
0.014822677 0.054829933 0.52546811 4286289582
0.020004284 0.053843398 0.52900004 4278991713
-0.030721352 0.061203439 0.52900004 4281546558
-0.024333782 0.06342607 0.52478474 4281812309
-0.015269357 0.065033548 0.52096295 4282864999
-0.0047041993 0.065374814 0.5209437 4290627277
0.0052563809 0.065134346 0.52332151 4289312195
0.013758941 0.064712487 0.5270949 4288983488
-0.020885864 0.076413944 0.52761543 4286877848
-0.015234385 0.075315364 0.52390134 4285891728
-0.004963913 0.075116985 0.52278221 4292468449
0.00543307 0.074943163 0.52521938 4288652723
0.012487436 0.074612521 0.528 4290626764
-0.023778658 0.085598372 0.52768892 4284972429
-0.015236787 0.085222878 0.5247429 4282474614
-0.0049837343 0.085353151 0.52475041 4291021517
0.0052633714 0.084805585 0.52710903 4289835705
0.011656405 0.081794292 0.52876925 4290165180
-0.023134883 0.095084146 0.52775645 4284772735
-0.015459353 0.094939597 0.52580953 4283589230
-0.0049911016 0.095069818 0.52571386 4291284431
0.0036712219 0.094424911 0.52826947 4289439917
-0.02242142 0.10250749 0.52831429 4286548114
-0.014685486 0.10341565 0.52755326 4287141278
-0.0048965327 0.10479119 0.52780682 4292797412
0.0022056964 0.103732 0.52892309 4293519079
-0.0066636228 0.11352427 0.52900022 4292137171
-0.12456116 0.12641659 0.52452099 4294836216
-0.1172886 0.12642232 0.52499998 4294836216
-0.10160112 0.12676227 0.52517653 4294836215
-0.094797924 0.12613824 0.52573502 4294770672
-0.085055701 0.12639515 0.5256806 4294770670
-0.074589804 0.12543291 0.52490336 4294770665
-0.064830929 0.12543145 0.5249114 4294704866
-0.055017367 0.12651774 0.52523136 4294704608
-0.045700412 0.12631625 0.52701253 4294703063
-0.037131041 0.12659054 0.52514285 4294703576
-0.024497503 0.12563765 0.5242942 4294768084
-0.013636607 0.12575564 0.5266301 4294834649
-0.0052645369 0.12574705 0.52710432 4294769632
0.0048670075 0.12508471 0.5241493 4294901486
0.014684673 0.12488493 0.5239206 4294901751
0.025241243 0.12522106 0.52463168 4294836217
0.034955591 0.12663883 0.52534378 4294836217
0.045310579 0.12374865 0.5243963 4294836217
0.055227738 0.1230973 0.52331829 4294770681
0.064902596 0.12469689 0.52464586 4294770681
0.075386353 0.12509006 0.52495992 4294770681
0.085096315 0.12495013 0.52483332 4294770681
0.095134273 0.12460977 0.52441263 4294770681
0.10480081 0.12606522 0.5252279 4294770681
0.11463003 0.12494949 0.52375388 4294770681
0.12560651 0.12520792 0.52405006 4294770681
-0.12344508 0.13020845 0.52000004 4294901753
-0.011164788 0.13025323 0.52350003 4294770671
-0.0051331213 0.13214538 0.52475733 4294836214
0.0020722782 0.13110374 0.52118182 4294836217
-0.043177024 0.02710779 0.53522032 4290229681
-0.039364733 0.025993556 0.53079998 4290427577
0.026192728 0.025859427 0.53535295 4292204761
-0.044682018 0.034900386 0.53409386 4287466884
0.026041217 0.035633538 0.53328413 4284445577
0.03046985 0.035979293 0.537 4285627270
-0.042389162 0.044902444 0.53180015 4287532419
-0.039305411 0.04556568 0.53000009 4288519064
0.018405788 0.047063742 0.53100008 4283395205
0.02415479 0.045520678 0.53362846 4283659145
-0.042621065 0.055479251 0.53601575 4287268734
-0.037223473 0.056287367 0.5319832 4286019188
0.019206217 0.056878004 0.53000003 4284514202
0.02447889 0.0548715 0.53395116 4280311949
-0.042838011 0.064076625 0.53818512 4285360996
-0.035113666 0.065052919 0.53274971 4283979094
-0.026470751 0.067965217 0.5315001 4283324518
0.018294983 0.065733314 0.53064704 4287934409
0.023369716 0.064868979 0.53459173 4279921821
-0.034724861 0.075191967 0.53661853 4287598990
-0.025566677 0.074981526 0.53421748 4285363836
-0.019244278 0.070704177 0.53000003 4279376433
0.017153338 0.075390957 0.53195673 4290299086
0.022247743 0.074725792 0.5367142 4283008429
-0.034943938 0.084935419 0.53413254 4287205523
-0.027561404 0.083425634 0.53054172 4287271837
0.0091756545 0.089977019 0.53000003 4283386192
0.015311003 0.085505575 0.53239316 4290230460
0.022523928 0.084288932 0.53729224 4291219932
-0.034419823 0.094742656 0.5351882 4285034359
-0.027845373 0.095008515 0.5308432 4285430151
0.0078215357 0.096356049 0.53008109 4290821825
0.014732832 0.095017806 0.53361571 4290034110
0.020504491 0.094284505 0.5387693 4285566892
-0.033276159 0.10467851 0.53695172 4288651165
-0.025745092 0.10597128 0.53145838 4290494141
-0.015625717 0.10835036 0.53040016 4292402653
-1.9029747e-05 0.10924986 0.53000003 4292007133
0.0063854977 0.10537143 0.53079516 4290887362
0.014682621 0.10488774 0.53505224 4292861921
0.02063236 0.10324553 0.53869236 4290560972
-0.032342907 0.11495235 0.53805357 4290358436
-0.024777638 0.11489536 0.53377688 4291413439
-0.014665584 0.11482508 0.53059649 4292795352
-0.0040921206 0.11539049 0.53007227 4292861406
0.0050168545 0.11502838 0.53153747 4292468189
0.014374502 0.11496925 0.53660309 4292796640
-0.12567708 0.12312485 0.53448498 4294901748
-0.11383448 0.12444459 0.53424788 4294836212
-0.10553569 0.12397145 0.53340846 4294836208
-0.096144184 0.1234084 0.53317511 4294836205
-0.084279351 0.12317908 0.53377032 4294770665
-0.075678244 0.1228329 0.53485721 4294770659
-0.064976208 0.12238681 0.5343101 4294704601
-0.055118646 0.1226178 0.53391945 4294637264
-0.044667765 0.12261968 0.53389746 4294634441
-0.034796704 0.12433535 0.53649563 4294501830
-0.025277544 0.12277998 0.53389364 4294237119
-0.015367126 0.1219562 0.53040022 4294106819
-0.0030929125 0.12130549 0.52999997 4293978835
0.0054044621 0.12081313 0.53043997 4294045918
0.015290737 0.12216977 0.53489614 4294770163
0.023668045 0.12299539 0.53561819 4294836216
0.034698896 0.1244652 0.5336408 4294836217
0.044433143 0.12328159 0.53497642 4294836217
0.05527845 0.12202989 0.53393948 4294770681
0.065751575 0.12284987 0.53423446 4294770681
0.074809872 0.12191068 0.53392851 4294770681
0.08474762 0.12165809 0.53310603 4294770681
0.094275646 0.12203363 0.53384858 4294770681
0.10551886 0.12254292 0.53285515 4294770681
0.11483376 0.12282308 0.53472066 4294770681
0.12475442 0.12325232 0.53489542 4294770681
0.028518001 0.019399926 0.54833341 4294442236
0.031093998 0.019388134 0.54800004 4294704381
-0.050971866 0.026916999 0.54757148 4281479990
-0.047769565 0.025946474 0.54453337 4288650650
0.028387168 0.022824269 0.54228574 4294047478
0.031675756 0.023219896 0.5440625 4290362559
-0.049146786 0.037945841 0.54079998 4287137655
-0.04656807 0.057563756 0.54109091 4291871148
-0.045198057 0.065679356 0.54048276 4289373328
0.027969705 0.068972096 0.54049999 4288793316
-0.04289759 0.07494393 0.54094964 4289111442
-0.039195362 0.074599497 0.54000002 4285296485
0.026938252 0.075113103 0.54159015 4287279046
0.030009074 0.073861957 0.54400003 4291353828
-0.042740084 0.085020527 0.54103243 4289899677
0.025349801 0.08650136 0.54116666 4289510862
-0.04276479 0.094715491 0.54232401 4289831315
-0.038935676 0.098423548 0.54033333 4284571234
0.024345919 0.095085569 0.54318804 4287671490
-0.042299885 0.10506285 0.54479659 4290357917
-0.03803274 0.10550678 0.54087818 4290096550
0.0195686 0.10917677 0.54000002 4292401371
0.024119908 0.10509664 0.54245692 4292336607
-0.12833558 0.11915784 0.54830766 4294901739
-0.11364383 0.1190658 0.54551613 4294901740
-0.10901415 0.11944506 0.54466671 4294901739
-0.083877742 0.11946944 0.54783326 4294836195
-0.074951291 0.1194766 0.54611433 4294770655
-0.065374635 0.11946695 0.54645151 4294639063
-0.058716904 0.11945868 0.54866672 4294505934
-0.043093551 0.1163813 0.54724652 4292725169
-0.037118606 0.11527467 0.54208338 4291870639
0.019574637 0.11518732 0.54016668 4294375411
0.022821791 0.11463252 0.54453969 4293914605
0.069673844 0.11950883 0.54725003 4294770681
0.074932091 0.11925773 0.5457567 4294770681
0.082139254 0.11959021 0.5462727 4294770681
0.11580029 0.11988398 0.54600006 4294770681
-0.12467373 0.12144058 0.54493338 4294901745
-0.11674707 0.12099653 0.5428077 4294901744
-0.10555311 0.12087303 0.54463631 4294836203
-0.093499109 0.1230491 0.54548717 4294836200
-0.085758395 0.12107842 0.5434885 4294836197
-0.074995212 0.12083072 0.54153574 4294770656
-0.06440331 0.12048791 0.54178578 4294638806
-0.054796167 0.12094089 0.54509258 4294570700
-0.045268029 0.12061244 0.54258072 4294765513
-0.038151555 0.12049539 0.54071426 4294697413
0.026166853 0.12139295 0.54381585 4294836216
0.034961138 0.1220576 0.54461819 4294836217
0.044829212 0.12172828 0.54428077 4294770681
0.0548505 0.12154975 0.54578185 4294770681
0.064633004 0.12119738 0.54441303 4294770681
0.074190296 0.1202561 0.54128569 4294770681
0.086448312 0.12074994 0.54494452 4294770681
0.094056718 0.12143135 0.54515153 4294770681
0.10984367 0.12070253 0.54000002 4294770681
0.11615404 0.12072064 0.54338241 4294770681
0.12451039 0.12121213 0.54431814 4294770681
