# .PCD v0.7 - Point Cloud Data file format
VERSION 0.7
FIELDS x y z rgb
SIZE 4 4 4 4
TYPE F F F U
COUNT 1 1 1 1
WIDTH 50
HEIGHT 1
VIEWPOINT 0 0 0 1 0 0 0
POINTS 50
DATA ascii
-0.069847539 0.024162082 0.5241006 4278190080
-0.06720268 0.014980871 0.5248875 4278190080
-0.065655798 0.0055270158 0.52526271 4278190080
-0.065231301 -0.0040504131 0.52522039 4278190080
-0.06593588 -0.013600374 0.52476114 4278190080
-0.067758426 -0.022972273 0.52389222 4278190080
-0.070670195 -0.032018311 0.52262735 4278190080
-0.074625269 -0.040595837 0.5209865 4278190080
-0.079561278 -0.04856959 0.51899546 4278190080
-0.085400388 -0.055813819 0.51668572 4278190080
-0.092050515 -0.0622143 0.51409364 4278190080
-0.099406794 -0.067670092 0.51126015 4278190080
-0.1073532 -0.072095141 0.50822985 4278190080
-0.11576443 -0.075419694 0.50505066 4278190080
-0.12450786 -0.077591307 0.50177258 4278190080
-0.13344559 -0.078575738 0.49844736 4278190080
-0.14243668 -0.078357466 0.49512744 4278190080
-0.15133934 -0.076939933 0.49186522 4278190080
-0.16001317 -0.074345484 0.48871204 4278190080
-0.16832143 -0.070615046 0.48571768 4278190080
-0.17613304 -0.065807432 0.48292941 4278190080
-0.18332484 -0.059998475 0.48039111 4278190080
-0.18978344 -0.05327975 0.47814286 4278190080
-0.19540696 -0.045757249 0.4762201 4278190080
-0.20010673 -0.03754957 0.47465318 4278190080
-0.20380864 -0.028786164 0.47346675 4278190080
-0.20645428 -0.019605214 0.47267956 4278190080
-0.20800199 -0.010151486 0.47230405 4278190080
-0.20842731 -0.00057410158 0.47234607 4278190080
-0.20772356 0.0089759296 0.47280499 4278190080
-0.20590183 0.018348023 0.47367361 4278190080
-0.20299086 0.027394351 0.47493821 4278190080
-0.19903652 0.035972275 0.4765788 4278190080
-0.19410121 0.043946512 0.47856957 4278190080
-0.18826275 0.051191323 0.48087913 4278190080
-0.18161318 0.057592466 0.48347098 4278190080
-0.1742574 0.063048974 0.48630434 4278190080
-0.16631135 0.067474835 0.48933446 4278190080
-0.15790041 0.070800215 0.49251363 4278190080
-0.14915718 0.072972685 0.49579161 4278190080
-0.14021955 0.073958002 0.49911684 4278190080
-0.13122845 0.073740624 0.50243676 4278190080
-0.12232568 0.072323956 0.50569904 4278190080
-0.11365162 0.069730379 0.5088523 4278190080
-0.10534304 0.066000737 0.51184684 4278190080
-0.097531013 0.061193898 0.51463526 4278190080
-0.090338707 0.055385642 0.51717377 4278190080
-0.083879545 0.048667565 0.51942223 4278190080
-0.07825537 0.041145615 0.52134526 4278190080
-0.073554896 0.032938398 0.52291244 4278190080
