# .PCD v0.7 - Point Cloud Data file format
VERSION 0.7
FIELDS x y z rgb
SIZE 4 4 4 4
TYPE F F F U
COUNT 1 1 1 1
WIDTH 1036
HEIGHT 1
VIEWPOINT 0 0 0 1 0 0 0
POINTS 1036
DATA ascii
-0.16728947 -0.13231154 0.48516661 4278190080
-0.16242594 -0.13266195 0.48666671 4278190080
-0.15785773 -0.13286765 0.48842859 4278190080
-0.17080346 -0.12664323 0.4850001 4278190080
-0.16746362 -0.12753336 0.48567355 4278190080
-0.16262475 -0.12768565 0.48751169 4278190080
-0.15740566 -0.12761053 0.48879179 4278190080
-0.1711605 -0.12225179 0.48500007 4278190080
-0.16767478 -0.12257587 0.48628575 4278190080
-0.16258679 -0.1227346 0.48786977 4278190080
-0.15847142 -0.12264036 0.4887858 4278190080
-0.17165148 -0.11724444 0.48499998 4278190080
-0.16759133 -0.1173975 0.48604086 4278190080
-0.16268227 -0.11754742 0.48753345 4278190080
-0.15871119 -0.11771644 0.48900008 4278190080
-0.1722407 -0.11233531 0.48500004 4278190080
-0.1676017 -0.11228846 0.48607144 4278190080
-0.16251794 -0.11258548 0.48735729 4278190080
-0.15863758 -0.11274075 0.48892006 4278190080
-0.17186192 -0.10746823 0.48499992 4278190080
-0.16747777 -0.10748605 0.48571438 4278190080
-0.16242586 -0.10747624 0.4872292 4278190080
-0.15822649 -0.10748445 0.48850003 4278190080
-0.17116052 -0.10261518 0.48500007 4278190080
-0.1673461 -0.10250912 0.48563054 4278190080
-0.16252349 -0.10235716 0.48720932 4278190080
-0.1583225 -0.10279991 0.48846155 4278190080
-0.17179404 -0.097256288 0.4849999 4278190080
-0.16761227 -0.097460076 0.4858 4278190080
-0.16256629 -0.097545721 0.48777285 4278190080
-0.15929356 -0.097801432 0.48899999 4278190080
-0.17508841 -0.090833217 0.48500001 4278190080
-0.17209341 -0.092305958 0.4849999 4278190080
-0.16752909 -0.092534885 0.48602334 4278190080
-0.16268888 -0.092407554 0.48761702 4278190080
-0.15926561 -0.092136733 0.48899996 4278190080
-0.17508841 -0.087691367 0.48500004 4278190080
-0.17229329 -0.087565191 0.48510522 4278190080
-0.1677262 -0.087481432 0.48629174 4278190080
-0.16257392 -0.087357834 0.48752379 4278190080
-0.15861219 -0.08732567 0.48900008 4278190080
-0.17508841 -0.082585856 0.48500007 4278190080
-0.17261194 -0.082561046 0.48555002 4278190080
-0.16759892 -0.082496576 0.48704264 4278190080
-0.16246736 -0.082474604 0.48833355 4278190080
-0.15866366 -0.083045222 0.48900008 4278190080
-0.17508841 -0.077480339 0.48500004 4278190080
-0.17230038 -0.077425763 0.48595238 4278190080
-0.16751122 -0.0776008 0.48774529 4278190080
-0.16292338 -0.077843137 0.48889664 4278190080
-0.15989926 -0.079307258 0.48900002 4278190080
-0.17595668 -0.071754716 0.48500004 4278190080
-0.17261982 -0.072415493 0.48565856 4278190080
-0.16768979 -0.072350137 0.48747921 4278190080
-0.16422753 -0.07256373 0.48891667 4278190080
-0.17705232 -0.067269303 0.48499998 4278190080
-0.1724437 -0.067393668 0.48624393 4278190080
-0.16732521 -0.067641146 0.48734894 4278190080
-0.16298626 -0.067094408 0.48875871 4278190080
-0.15989926 -0.065448284 0.48900002 4278190080
-0.17698115 -0.062679827 0.48505872 4278190080
-0.17254835 -0.062769033 0.486 4278190080
-0.16747984 -0.062431555 0.48732084 4278190080
-0.16248262 -0.06232249 0.48818427 4278190080
-0.15890162 -0.061690949 0.48894113 4278190080
-0.1721693 -0.057825837 0.48531422 4278190080
-0.16757689 -0.057377689 0.48663828 4278190080
-0.16244006 -0.057312995 0.48786852 4278190080
-0.17076774 -0.053523693 0.48500004 4278190080
-0.167291 -0.052546225 0.48564103 4278190080
-0.16238356 -0.052557178 0.48695245 4278190080
-0.15740758 -0.052685913 0.48764879 4278190080
-0.15294617 -0.052315202 0.48837504 4278190080
-0.14821509 -0.051085837 0.48884612 4278190080
-0.16701989 -0.047563523 0.48519349 4278190080
-0.16224891 -0.047602613 0.48608696 4278190080
-0.15727325 -0.047434799 0.48700005 4278190080
-0.15232307 -0.04749044 0.48757151 4278190080
-0.14760113 -0.047229543 0.48827785 4278190080
-0.14485021 -0.046441678 0.48900002 4278190080
-0.1754812 -0.040170807 0.48500001 4278190080
-0.17167114 -0.041466817 0.48500004 4278190080
-0.16758533 -0.042478178 0.48506981 4278190080
-0.16249001 -0.042622559 0.48609263 4278190080
-0.16757669 -0.037498232 0.48600012 4278190080
-0.16242276 -0.037580334 0.48707157 4278190080
-0.15816884 -0.037942868 0.48846433 4278190080
-0.15149583 -0.18540989 0.49000001 4278190080
-0.1477617 -0.18570724 0.49078578 4278190080
-0.1425512 -0.18616667 0.49200007 4278190080
-0.13732961 -0.18625371 0.49328578 4278190080
-0.13352883 -0.18652341 0.49400002 4278190080
-0.15126906 -0.18246236 0.48999992 4278190080
-0.14769094 -0.1824394 0.49054754 4278190080
-0.14242259 -0.18262741 0.491851 4278190080
-0.13721716 -0.18240578 0.49326089 4278190080
-0.13406225 -0.18305656 0.49400002 4278190080
-0.15109898 -0.17747426 0.48999992 4278190080
-0.14757298 -0.17741327 0.49049988 4278190080
-0.14256161 -0.17742981 0.49172726 4278190080
-0.13728262 -0.17744073 0.49305004 4278190080
-0.13400891 -0.17700294 0.49400002 4278190080
-0.15109898 -0.17271291 0.48999992 4278190080
-0.14783289 -0.17244819 0.49084079 4278190080
-0.14247993 -0.17251766 0.4920682 4278190080
-0.13739419 -0.17254482 0.49321276 4278190080
-0.13312876 -0.17252272 0.49400011 4278190080
-0.15185879 -0.1672042 0.49024236 4278190080
-0.14770325 -0.16755244 0.49151158 4278190080
-0.14271505 -0.16743405 0.49227667 4278190080
-0.13732958 -0.16747996 0.49328578 4278190080
-0.13370028 -0.16800821 0.49399999 4278190080
-0.1554642 -0.16080949 0.49000001 4278190080
-0.15215199 -0.16243497 0.49036834 4278190080
-0.14767322 -0.16236863 0.49170274 4278190080
-0.14259203 -0.16230942 0.49214286 4278190080
-0.13740395 -0.16247682 0.49355325 4278190080
-0.13421465 -0.16320798 0.49399999 4278190080
-0.15546419 -0.15763523 0.49000001 4278190080
-0.15239529 -0.15753713 0.49061686 4278190080
-0.14760624 -0.15737782 0.49204999 4278190080
-0.14269452 -0.15743901 0.49285111 4278190080
-0.13815852 -0.15757143 0.49390933 4278190080
-0.15625787 -0.15247709 0.48999986 4278190080
-0.15280221 -0.15262979 0.49136356 4278190080
-0.14756154 -0.15245144 0.49265224 4278190080
-0.14280525 -0.15257014 0.49385312 4278190080
-0.13920991 -0.15356179 0.49400002 4278190080
-0.15586103 -0.14850928 0.49000001 4278190080
-0.15253557 -0.1475206 0.4910908 4278190080
-0.14762327 -0.14742504 0.4927907 4278190080
-0.14313069 -0.14772153 0.49400017 4278190080
-0.15198542 -0.14261819 0.49052939 4278190080
-0.14751151 -0.14250611 0.4927907 4278190080
-0.1431307 -0.14252125 0.49400014 4278190080
-0.15225326 -0.13719383 0.4905121 4278190080
-0.14747396 -0.1375103 0.49265909 4278190080
-0.1428311 -0.13721076 0.49394137 4278190080
-0.13993005 -0.13652095 0.49400002 4278190080
-0.15586103 -0.13224126 0.49000001 4278190080
-0.15244329 -0.13237673 0.49049991 4278190080
-0.14742869 -0.13259573 0.49212503 4278190080
-0.14263323 -0.13243133 0.4936668 4278190080
-0.13993005 -0.13252075 0.49399999 4278190080
-0.15237714 -0.12755422 0.49028555 4278190080
-0.14733148 -0.12760158 0.4920001 4278190080
-0.14276233 -0.12773837 0.49370602 4278190080
-0.13993005 -0.12852055 0.49400002 4278190080
-0.15609914 -0.12248047 0.48999989 4278190080
-0.15243898 -0.12253164 0.49064565 4278190080
-0.14746825 -0.12250294 0.49257782 4278190080
-0.14385083 -0.12300029 0.49400005 4278190080
-0.15625787 -0.11756037 0.48999986 4278190080
-0.15274808 -0.11753913 0.49130219 4278190080
-0.14767791 -0.11743951 0.49304348 4278190080
-0.1443309 -0.11732001 0.49399999 4278190080
-0.15638319 -0.11242312 0.48999986 4278190080
-0.15263739 -0.112553 0.49146661 4278190080
-0.1477554 -0.11240973 0.49323261 4278190080
-0.14453094 -0.11291979 0.49399999 4278190080
-0.15586103 -0.10764086 0.48999992 4278190080
-0.15261911 -0.10745251 0.49134031 4278190080
-0.14754787 -0.10748906 0.49312496 4278190080
-0.14413089 -0.1071195 0.49399999 4278190080
-0.15633723 -0.10200659 0.48999986 4278190080
-0.15273318 -0.10241216 0.4912557 4278190080
-0.14749894 -0.10255557 0.49286374 4278190080
-0.14379171 -0.10234534 0.49400011 4278190080
-0.15700616 -0.097253785 0.4902142 4278190080
-0.15276177 -0.097626969 0.49152383 4278190080
-0.14757748 -0.097485475 0.49282226 4278190080
-0.14384663 -0.097424291 0.49400005 4278190080
-0.15692218 -0.09272369 0.49014804 4278190080
-0.15273252 -0.092588209 0.49170214 4278190080
-0.14770691 -0.092449754 0.49295455 4278190080
-0.14398085 -0.092768803 0.49399999 4278190080
-0.15633725 -0.087881185 0.48999986 4278190080
-0.1527662 -0.087356955 0.49124992 4278190080
-0.14762986 -0.087540992 0.49299994 4278190080
-0.14404513 -0.087261379 0.49399999 4278190080
-0.15672687 -0.081778005 0.48999986 4278190080
-0.15261281 -0.08242289 0.49104753 4278190080
-0.14752561 -0.082658298 0.49283728 4278190080
-0.14401507 -0.08272884 0.49400005 4278190080
-0.16144729 -0.07635624 0.48999992 4278190080
-0.15744838 -0.077485561 0.48999983 4278190080
-0.15253593 -0.077531129 0.4910908 4278190080
-0.14762403 -0.077480823 0.49281248 4278190080
-0.1443309 -0.077318035 0.49399999 4278190080
-0.16181363 -0.072724178 0.48999983 4278190080
-0.15752862 -0.07258971 0.49053839 4278190080
-0.15281598 -0.072435759 0.49142548 4278190080
-0.14761584 -0.072364494 0.49295235 4278190080
-0.1443309 -0.072517805 0.49399999 4278190080
-0.16121836 -0.068657182 0.48999989 4278190080
-0.15758075 -0.067400873 0.49012804 4278190080
-0.15275455 -0.067375377 0.49149996 4278190080
-0.14750186 -0.067522079 0.4925715 4278190080
-0.14410231 -0.06743183 0.49399999 4278190080
-0.15689282 -0.062804654 0.48999986 4278190080
-0.15253289 -0.062508345 0.4907856 4278190080
-0.14742164 -0.062659584 0.49248841 4278190080
-0.14347848 -0.06249442 0.49382159 4278190080
-0.14742139 -0.057616156 0.4920668 4278190080
-0.15149583 -0.054075491 0.48999998 4278190080
-0.1472141 -0.052984476 0.4903225 4278190080
-0.14554326 -0.048917335 0.49000001 4278190080
-0.1521903 -0.040882528 0.49000001 4278190080
-0.14718731 -0.041491862 0.48999986 4278190080
-0.14220417 -0.042638987 0.49080944 4278190080
-0.1562112 -0.036897216 0.48999989 4278190080
-0.15255624 -0.037853397 0.49005246 4278190080
-0.1473196 -0.037637427 0.48999983 4278190080
-0.14247866 -0.037513208 0.49060452 4278190080
-0.14554326 -0.033839673 0.49000001 4278190080
-0.14246596 -0.033862691 0.49033332 4278190080
-0.13119078 -0.18678272 0.49574995 4278190080
-0.12754691 -0.1869261 0.49720001 4278190080
-0.12381577 -0.18726335 0.49868181 4278190080
-0.13184424 -0.18247412 0.49553862 4278190080
-0.12755254 -0.18250671 0.49722221 4278190080
-0.12295753 -0.18234654 0.49847057 4278190080
-0.13180897 -0.17773674 0.49511105 4278190080
-0.12753512 -0.17740251 0.49657896 4278190080
-0.12265582 -0.17757587 0.49837768 4278190080
-0.11952353 -0.17588517 0.49900001 4278190080
-0.13087535 -0.17226364 0.49512497 4278190080
-0.12766306 -0.17267479 0.49631715 4278190080
-0.12263418 -0.17246881 0.49827901 4278190080
-0.11952353 -0.17265262 0.49900004 4278190080
-0.13149901 -0.16739552 0.49539995 4278190080
-0.127332 -0.16754425 0.49667501 4278190080
-0.12257966 -0.1675636 0.49828571 4278190080
-0.11952353 -0.16780381 0.49900004 4278190080
-0.13540268 -0.16044624 0.49500003 4278190080
-0.13199887 -0.16255587 0.49548656 4278190080
-0.12749343 -0.16246381 0.49686489 4278190080
-0.12255356 -0.16258124 0.49860862 4278190080
-0.11952353 -0.16497533 0.49900001 4278190080
-0.13588373 -0.15699911 0.49500003 4278190080
-0.13240746 -0.15749188 0.49579611 4278190080
-0.12755017 -0.15754846 0.49700001 4278190080
-0.12310003 -0.15774827 0.49847063 4278190080
-0.14061421 -0.15082633 0.49500003 4278190080
-0.13723141 -0.15226443 0.49533334 4278190080
-0.13251291 -0.15239394 0.49619058 4278190080
-0.12751488 -0.15255952 0.49743578 4278190080
-0.12350215 -0.15253897 0.49845454 4278190080
-0.14061421 -0.14721887 0.495 4278190080
-0.13760673 -0.14743333 0.49572229 4278190080
-0.13264586 -0.1477216 0.49669042 4278190080
-0.1276678 -0.14745399 0.49811903 4278190080
-0.12389585 -0.14826229 0.49860007 4278190080
-0.14061421 -0.14240892 0.495 4278190080
-0.13763775 -0.14264865 0.49583346 4278190080
-0.13263078 -0.14267218 0.49695742 4278190080
-0.12745853 -0.14258806 0.4984284 4278190080
-0.14061421 -0.13920228 0.49500003 4278190080
-0.13743836 -0.13756824 0.49542117 4278190080
-0.13275227 -0.13740866 0.49675 4278190080
-0.12747103 -0.13761127 0.49847725 4278190080
-0.13752265 -0.13257562 0.49545953 4278190080
-0.13272738 -0.13252065 0.49700001 4278190080
-0.12795039 -0.13241678 0.49860513 4278190080
-0.14061421 -0.12597491 0.49500003 4278190080
-0.13738212 -0.12761521 0.49597791 4278190080
-0.13251646 -0.12747152 0.49771419 4278190080
-0.1280155 -0.12742496 0.49881074 4278190080
-0.14171219 -0.12229776 0.49525926 4278190080
-0.13732104 -0.12249845 0.49652171 4278190080
-0.13259345 -0.12230253 0.49800003 4278190080
-0.1283883 -0.12267844 0.49879301 4278190080
-0.14193051 -0.11765249 0.49540001 4278190080
-0.13753772 -0.11748375 0.4968605 4278190080
-0.1323026 -0.11756419 0.49842849 4278190080
-0.12922256 -0.11850744 0.49900001 4278190080
-0.1421278 -0.11259087 0.49538898 4278190080
-0.13771202 -0.11257736 0.49722719 4278190080
-0.13323931 -0.11251111 0.49863631 4278190080
-0.14202362 -0.10776824 0.49537501 4278190080
-0.1376368 -0.10763064 0.4972856 4278190080
-0.13343526 -0.10700783 0.49881819 4278190080
-0.1414488 -0.10257557 0.4955 4278190080
-0.13745953 -0.10260678 0.49697724 4278190080
-0.13266465 -0.10230251 0.49850005 4278190080
-0.12922256 -0.10072844 0.49900001 4278190080
-0.14143758 -0.097480252 0.49526086 4278190080
-0.13744724 -0.097428642 0.4966 4278190080
-0.1323404 -0.097412154 0.49857131 4278190080
-0.12922256 -0.097495891 0.49900004 4278190080
-0.14172697 -0.092399448 0.49565524 4278190080
-0.1376363 -0.092395097 0.49695447 4278190080
-0.13226478 -0.092514455 0.49828574 4278190080
-0.1290205 -0.092243001 0.49900004 4278190080
-0.14190693 -0.087596245 0.49541375 4278190080
-0.13746588 -0.087388389 0.49666658 4278190080
-0.13224614 -0.087660208 0.49821422 4278190080
-0.12858748 -0.087509632 0.49900004 4278190080
-0.14161374 -0.082186989 0.49515378 4278190080
-0.13738719 -0.082514375 0.49638095 4278190080
-0.13229664 -0.082855687 0.4979499 4278190080
-0.12807192 -0.082522891 0.498862 4278190080
-0.14185463 -0.07749521 0.49513331 4278190080
-0.13736092 -0.077675782 0.49628577 4278190080
-0.13223581 -0.077502117 0.49797812 4278190080
-0.12873352 -0.077944174 0.49876475 4278190080
-0.14189251 -0.072703511 0.49526665 4278190080
-0.13739593 -0.072617345 0.49672338 4278190080
-0.1323069 -0.072397329 0.49823245 4278190080
-0.12881842 -0.072847717 0.49900001 4278190080
-0.14178996 -0.067773968 0.49545163 4278190080
-0.13762389 -0.067439251 0.49690911 4278190080
-0.13240333 -0.067587584 0.49858522 4278190080
-0.14120448 -0.062326863 0.49566665 4278190080
-0.13758416 -0.062506333 0.49709517 4278190080
-0.13325404 -0.062945321 0.49874994 4278190080
-0.14093545 -0.058037378 0.49515384 4278190080
-0.13746531 -0.057627246 0.49666664 4278190080
-0.13341914 -0.057670806 0.49865377 4278190080
-0.13241385 -0.052310016 0.49809086 4278190080
-0.11703561 -0.19043288 0.50220007 4278190080
-0.11209161 -0.19078413 0.50390917 4278190080
-0.12118561 -0.18780167 0.50014287 4278190080
-0.11742032 -0.18739633 0.50128967 4278190080
-0.1124397 -0.18751138 0.50339544 4278190080
-0.12097785 -0.18393034 0.5 4278190080
-0.11747859 -0.18256654 0.500359 4278190080
-0.11244102 -0.182561 0.50234288 4278190080
-0.10899617 -0.18212041 0.50381255 4278190080
-0.11740767 -0.17765132 0.50007141 4278190080
-0.1125791 -0.17741761 0.50130767 4278190080
-0.10809352 -0.17730992 0.50345159 4278190080
-0.11733341 -0.17218891 0.5 4278190080
-0.11261476 -0.17241956 0.50104541 4278190080
-0.10803954 -0.17266384 0.5031715 4278190080
-0.11697316 -0.16725999 0.50019443 4278190080
-0.11257143 -0.16744335 0.50190485 4278190080
-0.108877 -0.16812742 0.50347376 4278190080
-0.11745188 -0.16247495 0.50074995 4278190080
-0.11261886 -0.1627077 0.50339031 4278190080
-0.10929222 -0.16499592 0.50400001 4278190080
-0.12097785 -0.15680349 0.5 4278190080
-0.11750209 -0.15746129 0.50165319 4278190080
-0.11335117 -0.15780887 0.50374997 4278190080
-0.12097786 -0.15275471 0.5 4278190080
-0.11730279 -0.15243186 0.50179601 4278190080
-0.11378216 -0.15234429 0.50400007 4278190080
-0.1219443 -0.14699624 0.50012505 4278190080
-0.11734194 -0.14760831 0.50204277 4278190080
-0.11296581 -0.14744686 0.50399995 4278190080
-0.12226133 -0.14230914 0.50028563 4278190080
-0.11708561 -0.14258659 0.50250012 4278190080
-0.11378216 -0.14254947 0.50400007 4278190080
-0.12543215 -0.13574983 0.5 4278190080
-0.12229614 -0.13748674 0.50042862 4278190080
-0.11723594 -0.13745932 0.50260007 4278190080
-0.11323792 -0.13724397 0.50400001 4278190080
-0.12543215 -0.13251081 0.5 4278190080
-0.12226565 -0.13256206 0.50068182 4278190080
-0.11743464 -0.13227214 0.50216675 4278190080
-0.11261868 -0.13251255 0.50343597 4278190080
-0.10929222 -0.13153031 0.50400001 4278190080
-0.12543215 -0.12765227 0.5 4278190080
-0.12238283 -0.12752195 0.50086367 4278190080
-0.1173962 -0.1273499 0.50200003 4278190080
-0.1122846 -0.12742119 0.50326091 4278190080
-0.10904732 -0.12720427 0.50400007 4278190080
-0.12599283 -0.12238885 0.5 4278190080
-0.12245927 -0.12252531 0.50102329 4278190080
-0.11738203 -0.12229202 0.50285727 4278190080
-0.11292972 -0.12277474 0.50373524 4278190080
-0.10929222 -0.12377609 0.50400001 4278190080
-0.13069633 -0.11510105 0.5 4278190080
-0.12724741 -0.11740891 0.50028205 4278190080
-0.12265997 -0.1177177 0.50176752 4278190080
-0.11755719 -0.11745768 0.50375599 4278190080
-0.11378215 -0.11928679 0.50400001 4278190080
-0.13092771 -0.1119777 0.5 4278190080
-0.12725528 -0.11244866 0.50080955 4278190080
-0.12237976 -0.1127427 0.5027895 4278190080
-0.11912246 -0.1125034 0.50394118 4278190080
-0.13123626 -0.10781323 0.5 4278190080
-0.12737411 -0.107618 0.50053841 4278190080
-0.12259426 -0.10761628 0.50226325 4278190080
-0.11796503 -0.10709899 0.5037812 4278190080
-0.13029139 -0.10335957 0.5 4278190080
-0.12733774 -0.10264508 0.5 4278190080
-0.12251914 -0.10263167 0.50156826 4278190080
-0.11725922 -0.10238483 0.50316668 4278190080
-0.11367083 -0.10199746 0.50400007 4278190080
-0.12705189 -0.097691275 0.5 4278190080
-0.12255993 -0.097428598 0.50128883 4278190080
-0.11723692 -0.097476482 0.50307149 4278190080
-0.1138842 -0.098166719 0.50400001 4278190080
-0.12693618 -0.092948429 0.5 4278190080
-0.1225048 -0.092375286 0.50128573 4278190080
-0.11723141 -0.092584021 0.50304765 4278190080
-0.11419033 -0.09275917 0.50400001 4278190080
-0.12651198 -0.087906711 0.5 4278190080
-0.12247412 -0.087392993 0.50093031 4278190080
-0.11715458 -0.087469049 0.50317395 4278190080
-0.11419033 -0.087453641 0.50400001 4278190080
-0.12583709 -0.082305908 0.5 4278190080
-0.12238836 -0.082438812 0.50080955 4278190080
-0.11728676 -0.082380354 0.50328565 4278190080
-0.11419033 -0.08214812 0.50400001 4278190080
-0.12657332 -0.077263333 0.5 4278190080
-0.12249891 -0.077642724 0.50126207 4278190080
-0.11744379 -0.077362195 0.5034889 4278190080
-0.11419033 -0.077250712 0.50400001 4278190080
-0.12683386 -0.072433107 0.5 4278190080
-0.12240816 -0.072592698 0.50133348 4278190080
-0.1173545 -0.072291784 0.50357139 4278190080
-0.11342501 -0.072098233 0.50400007 4278190080
-0.13029139 -0.065705895 0.5 4278190080
-0.12744956 -0.067679159 0.50018919 4278190080
-0.1226586 -0.067365043 0.50147825 4278190080
-0.11749544 -0.067490347 0.50364995 4278190080
-0.11378216 -0.068680249 0.50400001 4278190080
-0.13100597 -0.061990548 0.5 4278190080
-0.12745835 -0.062373772 0.50059086 4278190080
-0.12256092 -0.062438581 0.50228214 4278190080
-0.11757226 -0.062473673 0.50397485 4278190080
-0.11419033 -0.061742261 0.50400001 4278190080
-0.13100003 -0.057405889 0.5 4278190080
-0.12727958 -0.057307284 0.50090474 4278190080
-0.12234178 -0.057464592 0.50227785 4278190080
-0.11744342 -0.057677835 0.50342506 4278190080
-0.13069633 -0.054369304 0.5 4278190080
-0.1274619 -0.052434374 0.50032437 4278190080
-0.1225196 -0.052461844 0.5015853 4278190080
-0.10728867 -0.190966 0.50533342 4278190080
-0.10235289 -0.19124186 0.50704169 4278190080
-0.097610921 -0.19168112 0.50860864 4278190080
-0.094299689 -0.1930114 0.509 4278190080
-0.10728335 -0.18760337 0.50580496 4278190080
-0.10243111 -0.18758382 0.50787181 4278190080
-0.098473467 -0.18852909 0.50899994 4278190080
-0.10639673 -0.18267445 0.50603449 4278190080
-0.10233969 -0.18269897 0.50823534 4278190080
-0.099658616 -0.18476808 0.509 4278190080
-0.10554133 -0.17811887 0.50591666 4278190080
-0.10245446 -0.17751576 0.50765002 4278190080
-0.099658616 -0.17776127 0.509 4278190080
-0.10563968 -0.17170079 0.50580001 4278190080
-0.10249896 -0.17260553 0.50779492 4278190080
-0.099658616 -0.17281528 0.509 4278190080
-0.10646473 -0.1671562 0.50583875 4278190080
-0.10241934 -0.16766813 0.50838888 4278190080
-0.099658616 -0.16786928 0.509 4278190080
-0.11073604 -0.16123402 0.50500005 4278190080
-0.10729457 -0.16250044 0.50622725 4278190080
-0.10229672 -0.16251874 0.50821054 4278190080
-0.098999053 -0.16185167 0.50899994 4278190080
-0.11114502 -0.15714474 0.50500005 4278190080
-0.10748038 -0.15752077 0.50675005 4278190080
-0.10244235 -0.15740953 0.50849998 4278190080
-0.099658616 -0.15715297 0.509 4278190080
-0.11160883 -0.15272193 0.50525004 4278190080
-0.10754416 -0.15252519 0.50731814 4278190080
-0.10316975 -0.15256971 0.50893092 4278190080
-0.099658616 -0.1542678 0.509 4278190080
-0.11077179 -0.14760827 0.50530773 4278190080
-0.10756722 -0.14751036 0.50742859 4278190080
-0.10336862 -0.14726099 0.50899988 4278190080
-0.11163615 -0.14273341 0.50537509 4278190080
-0.1076042 -0.14261596 0.50731707 4278190080
-0.10340612 -0.14201525 0.50899988 4278190080
-0.11131777 -0.13810715 0.50516677 4278190080
-0.10743182 -0.13759281 0.50678569 4278190080
-0.1028882 -0.1372793 0.50866663 4278190080
-0.11032705 -0.13383591 0.505 4278190080
-0.10700651 -0.13254866 0.50600004 4278190080
-0.10233317 -0.1323989 0.50844115 4278190080
-0.099383801 -0.13187344 0.509 4278190080
-0.10671479 -0.12760122 0.50564522 4278190080
-0.10240878 -0.12740955 0.50762165 4278190080
-0.098480828 -0.12706485 0.50899994 4278190080
-0.11114502 -0.12106829 0.50500005 4278190080
-0.10720932 -0.12239148 0.50573683 4278190080
-0.10242182 -0.12280221 0.50705713 4278190080
-0.097650327 -0.12234985 0.50864702 4278190080
-0.094547018 -0.12145939 0.509 4278190080
-0.11523488 -0.11584312 0.505 4278190080
-0.11231441 -0.11737886 0.50542867 4278190080
-0.10739181 -0.11743785 0.50659198 4278190080
-0.10214125 -0.11753359 0.50700003 4278190080
-0.097372293 -0.11731634 0.50783336 4278190080
-0.093729369 -0.11714754 0.50888884 4278190080
-0.11668207 -0.11257171 0.50500005 4278190080
-0.11266773 -0.11273193 0.50633353 4278190080
-0.10747914 -0.11219645 0.50700003 4278190080
-0.10214127 -0.11219645 0.50700003 4278190080
-0.097240187 -0.11222761 0.50713897 4278190080
-0.093102753 -0.11251353 0.50822228 4278190080
-0.11588925 -0.10864601 0.50500005 4278190080
-0.11253153 -0.10768246 0.50572234 4278190080
-0.10755935 -0.10725718 0.50648737 4278190080
-0.10234117 -0.10715372 0.50689745 4278190080
-0.097213998 -0.10726994 0.50700003 4278190080
-0.093303263 -0.10835864 0.50742853 4278190080
-0.1117585 -0.10292784 0.50500005 4278190080
-0.10767695 -0.10214149 0.50600028 4278190080
-0.10249782 -0.10229038 0.50673819 4278190080
-0.097250767 -0.10238206 0.5071944 4278190080
-0.11184458 -0.097630255 0.50510353 4278190080
-0.10743167 -0.097180776 0.50620019 4278190080
-0.10232338 -0.097533025 0.50715786 4278190080
-0.097458154 -0.097661942 0.50827789 4278190080
-0.094299689 -0.096152388 0.509 4278190080
-0.11206263 -0.092504852 0.50523537 4278190080
-0.10737684 -0.092403136 0.50652397 4278190080
-0.10223521 -0.09257625 0.50747228 4278190080
-0.097554289 -0.092813998 0.5087778 4278190080
-0.094299681 -0.092855059 0.50899994 4278190080
-0.1120507 -0.087287344 0.50540012 4278190080
-0.10739706 -0.087497726 0.50661916 4278190080
-0.10220205 -0.087538682 0.50773692 4278190080
-0.097583547 -0.087484755 0.50892872 4278190080
-0.094299689 -0.089969903 0.509 4278190080
-0.11205073 -0.082376309 0.50540006 4278190080
-0.10744264 -0.082609825 0.50683343 4278190080
-0.10242121 -0.082664773 0.50791186 4278190080
-0.097952075 -0.082411736 0.50870371 4278190080
-0.11205072 -0.077465296 0.50540006 4278190080
-0.10739742 -0.077652827 0.50661916 4278190080
-0.10221354 -0.077766828 0.50736117 4278190080
-0.11137144 -0.072716087 0.50510007 4278190080
-0.10760503 -0.072699778 0.50602734 4278190080
-0.11523488 -0.06595403 0.505 4278190080
-0.11213251 -0.067397922 0.50540006 4278190080
-0.11523488 -0.064318322 0.505 4278190080
-0.1121849 -0.062823892 0.50531256 4278190080
-0.095724054 -0.19049978 0.51000005 4278190080
-0.092295676 -0.19173801 0.51062858 4278190080
-0.087489694 -0.19229437 0.51258337 4278190080
-0.084306806 -0.19298641 0.514 4278190080
-0.09685152 -0.18684277 0.51024151 4278190080
-0.092361949 -0.18741871 0.51156396 4278190080
-0.087560877 -0.18746692 0.51300013 4278190080
-0.083920099 -0.18733594 0.5139333 4278190080
-0.097388998 -0.18243022 0.51039028 4278190080
-0.09229213 -0.18239346 0.51158816 4278190080
-0.087424308 -0.18219543 0.51219445 4278190080
-0.082695358 -0.18255532 0.51337153 4278190080
-0.079095364 -0.18148448 0.514 4278190080
-0.097036049 -0.17742008 0.51038891 4278190080
-0.092294954 -0.17753108 0.51105869 4278190080
-0.087236524 -0.17725533 0.51175761 4278190080
-0.082495101 -0.17732356 0.51250005 4278190080
-0.078991294 -0.1778426 0.514 4278190080
-0.097004645 -0.17240366 0.51022232 4278190080
-0.092123322 -0.17255819 0.51113147 4278190080
-0.087451778 -0.1723289 0.51179481 4278190080
-0.082575031 -0.17251083 0.51300001 4278190080
-0.079407573 -0.17284803 0.514 4278190080
-0.096994177 -0.16742785 0.51016682 4278190080
-0.092271581 -0.1674418 0.51147354 4278190080
-0.087490231 -0.16739033 0.51258332 4278190080
-0.083277322 -0.16844389 0.51386958 4278190080
-0.096531011 -0.16272165 0.51021439 4278190080
-0.092306346 -0.16239539 0.5116666 4278190080
-0.087579764 -0.16257697 0.51311111 4278190080
-0.084819146 -0.16285886 0.514 4278190080
-0.097036056 -0.1575814 0.51038891 4278190080
-0.092306346 -0.15742353 0.51166654 4278190080
-0.087499097 -0.15744676 0.51263899 4278190080
-0.084180981 -0.1572147 0.51391667 4278190080
-0.10104761 -0.1519095 0.51000005 4278190080
-0.097435571 -0.15264495 0.51063412 4278190080
-0.092300333 -0.15259333 0.51142418 4278190080
-0.087428801 -0.15234111 0.51222223 4278190080
-0.083166473 -0.15254714 0.51371425 4278190080
-0.10109351 -0.14755028 0.51000011 4278190080
-0.097520672 -0.14777079 0.51076192 4278190080
-0.092216551 -0.14774963 0.51116657 4278190080
-0.08740095 -0.14731592 0.51205558 4278190080
-0.082602464 -0.14763613 0.51316679 4278190080
-0.079823844 -0.14745891 0.514 4278190080
-0.10138854 -0.14306657 0.51000011 4278190080
-0.097456627 -0.14271438 0.51042855 4278190080
-0.092223763 -0.14263058 0.51138449 4278190080
-0.087391675 -0.14232463 0.51199991 4278190080
-0.082549304 -0.14255622 0.51283354 4278190080
-0.079511642 -0.14236028 0.514 4278190080
-0.10068048 -0.13763888 0.51000005 4278190080
-0.097353637 -0.13757174 0.51046669 4278190080
-0.092401624 -0.13742404 0.51171035 4278190080
-0.087391697 -0.13734943 0.51199991 4278190080
-0.082558021 -0.13758796 0.51288909 4278190080
-0.078879133 -0.13773446 0.51384205 4278190080
-0.097102463 -0.1325464 0.51042861 4278190080
-0.092326708 -0.13231704 0.5117777 4278190080
-0.087391682 -0.13237432 0.51199991 4278190080
-0.08256238 -0.13261107 0.5129168 4278190080
-0.078555606 -0.13285874 0.51387501 4278190080
-0.096441954 -0.1283067 0.51025009 4278190080
-0.092416711 -0.12725101 0.5113157 4278190080
-0.087410189 -0.12742665 0.51211107 4278190080
-0.08260259 -0.12768909 0.51316679 4278190080
-0.078991294 -0.12831305 0.514 4278190080
-0.095724054 -0.12442365 0.51000005 4278190080
-0.092218846 -0.12258814 0.51085705 4278190080
-0.087419458 -0.12246385 0.51216662 4278190080
-0.08266513 -0.12279597 0.51355571 4278190080
-0.079704903 -0.12319953 0.514 4278190080
-0.091581605 -0.11815283 0.51042116 4278190080
-0.087524734 -0.11738165 0.5118947 4278190080
-0.082692325 -0.11784388 0.51372218 4278190080
-0.079615712 -0.11790767 0.514 4278190080
-0.091042995 -0.11464988 0.51000005 4278190080
-0.088918649 -0.1141712 0.51125002 4278190080
-0.094484955 -0.088907734 0.51000005 4278190080
-0.081135772 -0.19549833 0.51600003 4278190080
-0.077352874 -0.19583121 0.51837504 4278190080
-0.081783488 -0.19252327 0.51586664 4278190080
-0.077635057 -0.19244538 0.51815629 4278190080
-0.073244669 -0.19098975 0.51900005 4278190080
-0.081811681 -0.18808015 0.51525003 4278190080
-0.077550024 -0.18742114 0.51651525 4278190080
-0.072581373 -0.18738325 0.51829028 4278190080
-0.069041431 -0.18650691 0.51900005 4278190080
-0.077090926 -0.18294163 0.51521438 4278190080
-0.072522983 -0.18228899 0.51710528 4278190080
-0.067990631 -0.18251441 0.51900005 4278190080
-0.07646291 -0.17706263 0.51526093 4278190080
-0.072659358 -0.17757198 0.51740009 4278190080
-0.068457648 -0.17863867 0.51900005 4278190080
-0.076925844 -0.17229262 0.51568758 4278190080
-0.07249584 -0.17257081 0.51816666 4278190080
-0.06849502 -0.17192379 0.51900005 4278190080
-0.082064562 -0.16655821 0.51500005 4278190080
-0.077578962 -0.16747043 0.51595366 4278190080
-0.07249584 -0.16753575 0.51816666 4278190080
-0.067669198 -0.16792877 0.51900011 4278190080
-0.082116738 -0.16244635 0.51533335 4278190080
-0.077448696 -0.16244248 0.51705015 4278190080
-0.072704032 -0.1627869 0.51876479 4278190080
-0.069041438 -0.16402282 0.51900005 4278190080
-0.081669532 -0.15786079 0.51534617 4278190080
-0.077408597 -0.15732527 0.51742858 4278190080
-0.073359266 -0.15777862 0.51892 4278190080
-0.081230402 -0.15358414 0.51500005 4278190080
-0.077787645 -0.15247115 0.5162105 4278190080
-0.073350154 -0.15266488 0.51865214 4278190080
-0.077165768 -0.14753558 0.51572233 4278190080
-0.073124386 -0.14745066 0.51841378 4278190080
-0.076924413 -0.14267178 0.51550007 4278190080
-0.072687529 -0.14243469 0.51833332 4278190080
-0.069671921 -0.14090833 0.51900005 4278190080
-0.076254502 -0.13770744 0.51520002 4278190080
-0.072535403 -0.13740698 0.51740539 4278190080
-0.069335662 -0.13721 0.51900005 4278190080
-0.076225378 -0.13231589 0.51499999 4278190080
-0.072763339 -0.13250959 0.51665008 4278190080
-0.068336129 -0.13197495 0.51872724 4278190080
-0.07698372 -0.12712203 0.5150001 4278190080
-0.072715864 -0.1275862 0.51631713 4278190080
-0.067581341 -0.127325 0.51860607 4278190080
-0.064628027 -0.12661937 0.51900005 4278190080
-0.077476636 -0.12230729 0.51500016 4278190080
-0.072650455 -0.12261263 0.51628578 4278190080
-0.067530707 -0.12232369 0.51827019 4278190080
-0.064347811 -0.12255681 0.51900005 4278190080
-0.077331565 -0.11768376 0.5150001 4278190080
-0.072586149 -0.1179098 0.51582873 4278190080
-0.067421973 -0.11795774 0.51787508 4278190080
-0.064267747 -0.1183942 0.51900005 4278190080
-0.072239779 -0.19637237 0.52080011 4278190080
-0.067136258 -0.19673598 0.52216673 4278190080
-0.062189478 -0.19714397 0.52324992 4278190080
-0.057611931 -0.19700214 0.52400011 4278190080
-0.072500303 -0.19316737 0.52030009 4278190080
-0.067383297 -0.19256288 0.52136117 4278190080
-0.062152755 -0.19266503 0.52242839 4278190080
-0.057143867 -0.19245332 0.5237273 4278190080
-0.05379257 -0.19021311 0.52400005 4278190080
-0.066989988 -0.18788947 0.52020848 4278190080
-0.062736697 -0.1874716 0.52132261 4278190080
-0.057779029 -0.18758592 0.52262175 4278190080
-0.054026175 -0.18708678 0.52380008 4278190080
-0.065594822 -0.182445 0.52000004 4278190080
-0.062774681 -0.18258548 0.52057153 4278190080
-0.05771384 -0.18242586 0.52199996 4278190080
-0.05441441 -0.18260768 0.52357143 4278190080
-0.066973075 -0.17685623 0.52000016 4278190080
-0.062712647 -0.17758153 0.52055562 4278190080
-0.057794571 -0.17745371 0.5218333 4278190080
-0.054622579 -0.17752999 0.52345449 4278190080
-0.066963494 -0.17339194 0.52000004 4278190080
-0.062672883 -0.17241314 0.52022243 4278190080
-0.057760805 -0.17242339 0.52152938 4278190080
-0.054588776 -0.17265141 0.52349997 4278190080
-0.066268638 -0.16551785 0.52000004 4278190080
-0.06268286 -0.16738418 0.52030569 4278190080
-0.057598688 -0.16749802 0.52217501 4278190080
-0.054588776 -0.16883624 0.52350003 4278190080
-0.070648432 -0.16097027 0.52000004 4278190080
-0.067325376 -0.16200139 0.52036381 4278190080
-0.062369607 -0.16247298 0.52173179 4278190080
-0.05792461 -0.16311271 0.52312911 4278190080
-0.07112617 -0.15730622 0.52041668 4278190080
-0.067432128 -0.1576103 0.52165115 4278190080
-0.062277287 -0.15746669 0.52323693 4278190080
-0.059172004 -0.15780063 0.52385724 4278190080
-0.071137495 -0.15227401 0.5205 4278190080
-0.067576133 -0.15261123 0.52182919 4278190080
-0.062278289 -0.15226333 0.52348572 4278190080
-0.059167966 -0.15188356 0.52400011 4278190080
-0.070811458 -0.14782445 0.5201667 4278190080
-0.067414679 -0.14756121 0.52153665 4278190080
-0.062144417 -0.14746274 0.52286661 4278190080
-0.058642548 -0.14705448 0.52400011 4278190080
-0.070648432 -0.14370626 0.52000004 4278190080
-0.067284033 -0.142755 0.52113891 4278190080
-0.062215269 -0.14264472 0.52227765 4278190080
-0.058005687 -0.14227712 0.52356529 4278190080
-0.067094237 -0.13776527 0.52040011 4278190080
-0.062833287 -0.13737935 0.52155554 4278190080
-0.057967152 -0.13746999 0.52294123 4278190080
-0.066511579 -0.13339359 0.52007693 4278190080
-0.062643699 -0.13234691 0.52093947 4278190080
-0.057952002 -0.13254423 0.52271432 4278190080
-0.065594822 -0.12938976 0.52000004 4278190080
-0.06252756 -0.12768821 0.52034491 4278190080
-0.05783058 -0.12758581 0.52271432 4278190080
-0.062090676 -0.12271062 0.52044451 4278190080
-0.058550879 -0.12261449 0.52229631 4278190080
-0.062018365 -0.1185413 0.52076477 4278190080
-0.058715675 -0.11858779 0.52249998 4278190080
-0.045223325 -0.20021616 0.528 4278190080
-0.042282272 -0.20046896 0.52866673 4278190080
-0.055170782 -0.19737808 0.52500004 4278190080
-0.052131444 -0.19735084 0.52554542 4278190080
-0.047303244 -0.19752443 0.52668589 4278190080
-0.042190224 -0.1973913 0.52828574 4278190080
-0.039311059 -0.19631176 0.52900004 4278190080
-0.05218368 -0.19270258 0.52543747 4278190080
-0.047240712 -0.19246057 0.52666688 4278190080
-0.042203799 -0.19250838 0.52818185 4278190080
-0.039311055 -0.1924565 0.52900004 4278190080
-0.051454335 -0.18770908 0.52556521 4278190080
-0.047288213 -0.18752991 0.52719456 4278190080
-0.042444412 -0.18767746 0.5284 4278190080
-0.039311059 -0.18860124 0.52900004 4278190080
-0.051676594 -0.18257806 0.5258621 4278190080
-0.047315329 -0.18251358 0.52750009 4278190080
-0.042865947 -0.18237282 0.52875876 4278190080
-0.051822916 -0.17741919 0.52583879 4278190080
-0.047330149 -0.17744349 0.52766681 4278190080
-0.042862091 -0.17758116 0.52884018 4278190080
-0.051950246 -0.17244819 0.52592856 4278190080
-0.047369421 -0.172461 0.52811116 4278190080
-0.043452475 -0.17389418 0.5290001 4278190080
-0.052128479 -0.16741098 0.52649999 4278190080
-0.048162106 -0.16780031 0.52858347 4278190080
-0.055914715 -0.16162796 0.52533334 4278190080
-0.052399669 -0.16245078 0.5270834 4278190080
-0.048736356 -0.1624712 0.52900016 4278190080
-0.056940626 -0.15752186 0.52590328 4278190080
-0.052533649 -0.15758689 0.52741188 4278190080
-0.047725316 -0.15711847 0.5289312 4278190080
-0.060272977 -0.15401563 0.52500004 4278190080
-0.056939993 -0.1525322 0.52564281 4278190080
-0.052413896 -0.15253311 0.52722234 4278190080
-0.047435459 -0.15228511 0.52883339 4278190080
-0.044023708 -0.15004875 0.52900004 4278190080
-0.056477934 -0.14772308 0.52529997 4278190080
-0.052274697 -0.14742386 0.5268237 4278190080
-0.047472585 -0.14741746 0.52848393 4278190080
-0.044023708 -0.14747857 0.5290001 4278190080
-0.055630993 -0.14262837 0.52533334 4278190080
-0.052353367 -0.14240591 0.52661133 4278190080
-0.047389399 -0.14258665 0.52833337 4278190080
-0.043809492 -0.14340913 0.5290001 4278190080
-0.055170778 -0.13743587 0.52500004 4278190080
-0.052390441 -0.13750677 0.52660608 4278190080
-0.047753684 -0.13776991 0.52856678 4278190080
-0.044452131 -0.13933972 0.52900004 4278190080
-0.055170778 -0.1323344 0.52500004 4278190080
-0.052357767 -0.13261198 0.52666676 4278190080
-0.049117908 -0.1323607 0.52850008 4278190080
-0.055188295 -0.12727265 0.52516669 4278190080
-0.052407518 -0.12761436 0.52716678 4278190080
-0.049195208 -0.12728439 0.52890915 4278190080
-0.056056175 -0.12220901 0.52533334 4278190080
-0.052441292 -0.12257026 0.52750009 4278190080
-0.049164783 -0.12220526 0.5290001 4278190080
-0.056092009 -0.11888098 0.52566671 4278190080
-0.052372631 -0.11896273 0.52766663 4278190080
-0.049164783 -0.11835001 0.52900004 4278190080
-0.037284292 -0.20079778 0.53066671 4278190080
-0.032218918 -0.20093434 0.53216672 4278190080
-0.027521763 -0.20124894 0.53300005 4278190080
-0.022773478 -0.20124897 0.53300005 4278190080
-0.017582258 -0.20112339 0.53266668 4278190080
-0.013282529 -0.20134334 0.53325003 4278190080
-0.036938485 -0.19767058 0.5305863 4278190080
-0.032207128 -0.19741294 0.53196651 4278190080
-0.02750711 -0.19769299 0.53271997 4278190080
-0.022744348 -0.19753689 0.53229988 4278190080
-0.017566364 -0.19749933 0.53219986 4278190080
-0.013226469 -0.19755498 0.53326094 4278190080
-0.036836784 -0.19262178 0.53039998 4278190080
-0.03219524 -0.19260569 0.53177762 4278190080
-0.017560517 -0.19268633 0.53199983 4278190080
-0.013278707 -0.19244552 0.53312498 4278190080
-0.040243834 -0.18638273 0.53000003 4278190080
-0.037071079 -0.18734144 0.53050005 4278190080
-0.032205909 -0.18749709 0.53194427 4278190080
-0.017563825 -0.18755567 0.53211099 4278190080
-0.013362178 -0.18754898 0.53331822 4278190080
-0.040458452 -0.1825202 0.53000003 4278190080
-0.037404522 -0.18256441 0.53069705 4278190080
-0.032209501 -0.18234736 0.53199983 4278190080
-0.017512992 -0.18245544 0.5332002 4278190080
-0.014279738 -0.18269481 0.53381819 4278190080
-0.040458452 -0.17694096 0.53000003 4278190080
-0.037221301 -0.17756334 0.53105271 4278190080
-0.032209501 -0.17717788 0.53199983 4278190080
-0.018150449 -0.17773329 0.53376937 4278190080
-0.014599234 -0.17914121 0.53400004 4278190080
-0.045394626 -0.17007424 0.53000003 4278190080
-0.042030223 -0.1718255 0.53010708 4278190080
-0.037444472 -0.17258038 0.53149992 4278190080
-0.032112982 -0.17232133 0.53236359 4278190080
-0.027528321 -0.17237444 0.53313333 4278190080
-0.023026746 -0.1728304 0.53387517 4278190080
-0.019096944 -0.17447117 0.53400004 4278190080
-0.046097003 -0.16703103 0.53000009 4278190080
-0.042332441 -0.16737232 0.53055888 4278190080
-0.037355229 -0.16759543 0.53166652 4278190080
-0.03235342 -0.1676476 0.53245449 4278190080
-0.027500669 -0.16746458 0.53375876 4278190080
-0.024022575 -0.16757993 0.53400004 4278190080
-0.046253089 -0.16277836 0.53000003 4278190080
-0.042419933 -0.16244157 0.53054291 4278190080
-0.037335716 -0.16234455 0.53138888 4278190080
-0.032230265 -0.16264147 0.53236103 4278190080
-0.02751202 -0.16244268 0.53342861 4278190080
-0.023799093 -0.16211998 0.5340001 4278190080
-0.045823857 -0.1589158 0.53000003 4278190080
-0.04253282 -0.15753239 0.53033346 4278190080
-0.037227094 -0.15744539 0.53137499 4278190080
-0.032228604 -0.15746011 0.53233331 4278190080
-0.02763005 -0.15759809 0.5333215 4278190080
-0.023248678 -0.15730447 0.5340001 4278190080
-0.0423024 -0.15265523 0.53017652 4278190080
-0.037352826 -0.15251663 0.53163153 4278190080
-0.03224542 -0.15236709 0.53261113 4278190080
-0.022811005 -0.15273257 0.53388906 4278190080
-0.0197889 -0.15103456 0.53400004 4278190080
-0.041475546 -0.14742145 0.52999997 4278190080
-0.037459884 -0.14751065 0.53162491 4278190080
-0.032123275 -0.14739543 0.53237492 4278190080
-0.022776835 -0.14732231 0.53308356 4278190080
-0.017995529 -0.14720398 0.53389668 4278190080
-0.041771419 -0.14194474 0.53011537 4278190080
-0.037355229 -0.14262524 0.53166652 4278190080
-0.032338414 -0.14271355 0.53247058 4278190080
-0.022773478 -0.14255135 0.53300005 4278190080
-0.017597502 -0.14258733 0.53313333 4278190080
-0.014166762 -0.14238636 0.53399998 4278190080
-0.045823857 -0.13659891 0.53000003 4278190080
-0.04230519 -0.13716419 0.5305295 4278190080
-0.037371561 -0.1375161 0.53188872 4278190080
-0.022773476 -0.13780373 0.53300017 4278190080
-0.017496269 -0.13759077 0.53307712 4278190080
-0.014166762 -0.13762984 0.53399998 4278190080
-0.046682324 -0.13273638 0.52999997 4278190080
-0.042528033 -0.13260785 0.53087103 4278190080
-0.037379727 -0.13237566 0.53199983 4278190080
-0.032223761 -0.13243812 0.53224987 4278190080
-0.027521763 -0.13262452 0.53300005 4278190080
-0.022787178 -0.13270666 0.53333354 4278190080
-0.018247388 -0.13324851 0.53377289 4278190080
-0.04676817 -0.1276035 0.52999997 4278190080
-0.042451445 -0.12777379 0.53077787 4278190080
-0.037237801 -0.12732215 0.53166658 4278190080
-0.032218918 -0.12724607 0.53216654 4278190080
-0.027523376 -0.12745315 0.53303337 4278190080
-0.023563286 -0.12795876 0.53379178 4278190080
-0.046682324 -0.12243629 0.52999997 4278190080
-0.042402789 -0.12247521 0.53016669 4278190080
-0.037453827 -0.12256313 0.53139395 4278190080
-0.032151096 -0.12242891 0.53219342 4278190080
-0.027527785 -0.12229681 0.53313333 4278190080
-0.024546094 -0.1224955 0.53399998 4278190080
-0.046510629 -0.11874541 0.53000009 4278190080
-0.042555094 -0.11890388 0.53000009 4278190080
-0.037367351 -0.11941455 0.53183335 4278190080
-0.032410484 -0.11943316 0.5320909 4278190080
-0.027531441 -0.11928965 0.53320003 4278190080
-0.024546094 -0.11946863 0.53400004 4278190080
-0.010727035 -0.20157087 0.53500003 4278190080
-0.0071126083 -0.20205538 0.5377419 4278190080
-0.010727034 -0.19723867 0.53499997 4278190080
-0.0073478306 -0.19749801 0.53762501 4278190080
-0.010727035 -0.19247326 0.53499997 4278190080
-0.0075506638 -0.19266705 0.53767639 4278190080
-0.010951092 -0.18718776 0.53537494 4278190080
-0.00816999 -0.18742099 0.53790909 4278190080
-0.011777335 -0.18226288 0.53584617 4278190080
-0.0082305679 -0.18261015 0.53813046 4278190080
-0.016070848 -0.17629971 0.53500003 4278190080
-0.012461489 -0.17744808 0.53626472 4278190080
-0.0081837019 -0.17768086 0.53874993 4278190080
-0.021125803 -0.17124549 0.53500003 4278190080
-0.017454375 -0.17223187 0.535375 4278190080
-0.012477845 -0.17247653 0.53728211 4278190080
-0.0086224265 -0.17292188 0.53887498 4278190080
-0.021508113 -0.16765231 0.53499997 4278190080
-0.017685302 -0.16746211 0.5358333 4278190080
-0.012563493 -0.16743582 0.53781825 4278190080
-0.0090611512 -0.16728832 0.53900003 4278190080
-0.021311497 -0.16282867 0.53499997 4278190080
-0.0177263 -0.16249281 0.53587878 4278190080
-0.01258593 -0.16249867 0.53780001 4278190080
-0.0090611512 -0.16248728 0.53900003 4278190080
-0.021125803 -0.15868212 0.53500003 4278190080
-0.017738 -0.15748024 0.53554285 4278190080
-0.012404473 -0.15752947 0.53778791 4278190080
-0.0090611512 -0.15768623 0.53900003 4278190080
-0.017398817 -0.15249574 0.53516126 4278190080
-0.012621833 -0.15253802 0.53693938 4278190080
-0.0086246291 -0.15201226 0.53900003 4278190080
-0.015926421 -0.14871807 0.53500003 4278190080
-0.012367964 -0.14752416 0.53624243 4278190080
-0.0082450453 -0.14730614 0.53899992 4278190080
-0.011613945 -0.14248517 0.53600001 4278190080
-0.0086134216 -0.14223404 0.53833336 4278190080
-0.01181752 -0.13738252 0.53615385 4278190080
-0.020692522 -0.13008963 0.53500003 4278190080
-0.017082242 -0.13118066 0.53529406 4278190080
-0.021355338 -0.12691911 0.5353334 4278190080
-0.017718263 -0.12749074 0.53683341 4278190080
-0.022020103 -0.12266979 0.53570831 4278190080
-0.022439083 -0.11976694 0.5353334 4278190080
-0.0016478612 -0.20539851 0.54166669 4278190080
0.0025089046 -0.20567632 0.54345459 4278190080
-0.0025206446 -0.20251659 0.54100001 4278190080
0.0018353774 -0.20246884 0.54322225 4278190080
-0.0026143005 -0.19751556 0.5409286 4278190080
0.0013705203 -0.19765918 0.54356527 4278190080
-0.0055793119 -0.19121121 0.54000002 4278190080
-0.0024426603 -0.19255912 0.54187506 4278190080
0.0011640924 -0.19252136 0.54370004 4278190080
-0.0055793114 -0.18771307 0.54000002 4278190080
-0.0025589718 -0.18748748 0.54211116 4278190080
0.0020648378 -0.18722865 0.54381478 4278190080
0.0053936318 -0.18513896 0.54400003 4278190080
-0.0055793114 -0.18246584 0.54000002 4278190080
-0.0024937436 -0.18254866 0.54182142 4278190080
0.0021880239 -0.18251236 0.54333335 4278190080
0.005771264 -0.18199249 0.54400009 4278190080
-0.0055793114 -0.1772186 0.54000002 4278190080
-0.0026173401 -0.17750725 0.54135722 4278190080
0.0023681852 -0.17733979 0.54285717 4278190080
0.0069525745 -0.17737928 0.54399991 4278190080
-0.0062938542 -0.17211962 0.54010528 4278190080
-0.0025235489 -0.17241724 0.54140002 4278190080
0.0022344233 -0.17251053 0.54280651 4278190080
0.0067153443 -0.17236422 0.54399997 4278190080
-0.0065130871 -0.16757095 0.5402174 4278190080
-0.0024262834 -0.16741352 0.54144448 4278190080
0.0023070211 -0.16766724 0.54305553 4278190080
0.0061866594 -0.16822346 0.54400009 4278190080
-0.0064563546 -0.16242667 0.54025 4278190080
-0.0025539855 -0.16257079 0.54158634 4278190080
0.0018980337 -0.16270027 0.54360002 4278190080
0.0053936318 -0.16487561 0.54400003 4278190080
-0.0063942187 -0.15749972 0.54028571 4278190080
-0.0025864737 -0.15760028 0.54196554 4278190080
0.0014856012 -0.15736909 0.54360873 4278190080
-0.0063413922 -0.15305896 0.54026318 4278190080
-0.0024670342 -0.15260139 0.54237944 4278190080
0.0011433726 -0.15294126 0.54376471 4278190080
-0.0056846286 -0.14744224 0.54046148 4278190080
-0.0025288952 -0.14753605 0.54276669 4278190080
0.00054735225 -0.14769582 0.54400009 4278190080
-0.0060219327 -0.14238311 0.5405556 4278190080
-0.0025299559 -0.14256755 0.54292595 4278190080
-0.0061159846 -0.13710736 0.54073685 4278190080
-0.0025926104 -0.13770989 0.54313803 4278190080
-0.0070180334 -0.13205479 0.54122585 4278190080
-0.0026285187 -0.13278845 0.54364282 4278190080
-0.0074011739 -0.12760936 0.5425455 4278190080
-0.0037382005 -0.12803315 0.54400009 4278190080
-0.015637932 -0.12124825 0.54000002 4278190080
-0.0074442727 -0.12318779 0.54303449 4278190080
-0.0038583565 -0.12346791 0.54400009 4278190080
0.0078851143 -0.20618293 0.5456 4278190080
0.012503207 -0.206384 0.54659998 4278190080
0.017418271 -0.20648426 0.54804176 4278190080
0.021356864 -0.20707445 0.54890001 4278190080
0.0043946761 -0.20237541 0.54500002 4278190080
0.0074979239 -0.20266987 0.54548478 4278190080
0.012511161 -0.20253584 0.54696667 4278190080
0.017551821 -0.20238912 0.5484243 4278190080
0.020560293 -0.20240007 0.54900002 4278190080
0.0040794038 -0.19739485 0.54500002 4278190080
0.0076847719 -0.19765323 0.54594588 4278190080
0.012516606 -0.19730549 0.54720002 4278190080
0.017310681 -0.19755575 0.54845458 4278190080
0.020560293 -0.19750994 0.54900002 4278190080
0.003701078 -0.19266646 0.54500002 4278190080
0.0076807067 -0.19260092 0.54603112 4278190080
0.012512429 -0.19237524 0.54703993 4278190080
0.017525526 -0.19244121 0.54811776 4278190080
0.020893758 -0.19206414 0.54900002 4278190080
0.0040794043 -0.1890098 0.54500002 4278190080
0.0075619887 -0.18768774 0.54540616 4278190080
0.012500073 -0.18775372 0.54647994 4278190080
0.017291915 -0.18739377 0.54753131 4278190080
0.021004913 -0.18728514 0.54899997 4278190080
0.0082562361 -0.18267463 0.54503852 4278190080
0.012485786 -0.18268056 0.54586655 4278190080
0.017459093 -0.1825524 0.54706448 4278190080
0.021004913 -0.18239503 0.54899997 4278190080
0.0094390279 -0.17803992 0.54500002 4278190080
0.012575816 -0.17749602 0.54548144 4278190080
0.017318115 -0.17763415 0.54685712 4278190080
0.021004913 -0.17750491 0.54899997 4278190080
0.0093759736 -0.17268109 0.54500002 4278190080
0.012380094 -0.17263636 0.54535717 4278190080
0.017449856 -0.17250103 0.54702872 4278190080
0.021312727 -0.17240961 0.54899991 4278190080
0.0082636913 -0.1670146 0.54500002 4278190080
0.012485025 -0.16764064 0.54583317 4278190080
0.017447094 -0.16748942 0.54729414 4278190080
0.021004913 -0.16772467 0.54899997 4278190080
0.004373658 -0.16223657 0.54500002 4278190080
0.0076855957 -0.16238108 0.54577136 4278190080
0.012507949 -0.16263421 0.54683328 4278190080
0.017421545 -0.1625696 0.5481112 4278190080
0.021004913 -0.16327912 0.54900002 4278190080
