# .PCD v0.7 - Point Cloud Data file format
VERSION 0.7
FIELDS x y z rgb
SIZE 4 4 4 4
TYPE F F F U
COUNT 1 1 1 1
WIDTH 1105
HEIGHT 1
VIEWPOINT 0 0 0 1 0 0 0
POINTS 1105
DATA ascii
0.34867844 0.0059469519 0.95200002 4278190080
0.28330055 -0.018447887 0.95775008 4278190080
0.28778926 -0.016742347 0.95633334 4278190080
0.29143879 -0.0157529 0.95900005 4278190080
0.2890352 -0.012598321 0.95533341 4278190080
0.29129389 -0.013013495 0.95725006 4278190080
0.28944978 -0.007954021 0.9550001 4278190080
0.2921055 -0.0076567247 0.95660001 4278190080
0.29346246 -0.0041002738 0.95800006 4278190080
0.34114558 -0.0002217717 0.95900005 4278190080
0.34114558 0.0013313412 0.95900005 4278190080
0.34513664 0.0036457404 0.95500004 4278190080
0.35320354 0.005984433 0.95800006 4278190080
0.3586601 0.0082943207 0.95600003 4278190080
0.36213627 0.0083029969 0.95700002 4278190080
0.36755228 0.0083203483 0.95900005 4278190080
0.37337691 0.0081593459 0.95840007 4278190080
0.37740666 0.0076867961 0.9576 4278190080
0.35943434 0.010616702 0.95600003 4278190080
0.36213624 0.010627808 0.95700002 4278190080
0.36698127 0.012013463 0.95630008 4278190080
0.37259638 0.012164957 0.95600009 4278190080
0.28737685 -0.020454809 0.96100003 4278190080
0.28737685 -0.018898457 0.96100003 4278190080
0.29312956 -0.016840827 0.96200007 4278190080
0.29458568 -0.012682381 0.96166676 4278190080
0.29438144 -0.0095603447 0.96100003 4278190080
0.3488616 0.0036686454 0.96100003 4278190080
0.35174587 0.0036743716 0.96250004 4278190080
0.3741529 0.0036800979 0.96400005 4278190080
0.3779524 0.0036715085 0.96174997 4278190080
0.35820106 0.0060031731 0.96100003 4278190080
0.36299717 0.0060052555 0.96133333 4278190080
0.36792293 0.0060094199 0.96200007 4278190080
0.37259871 0.0066269636 0.96120006 4278190080
0.2919547 -0.021531645 0.96739995 4278190080
0.29308847 -0.01901645 0.96700001 4278190080
0.29621941 -0.017450381 0.96700007 4278190080
0.29887763 -0.0072784517 0.96800005 4278190080
0.34634084 -0.00022362173 0.96700007 4278190080
0.34634084 0.0013424472 0.96700007 4278190080
0.35742751 0.0036928232 0.96733338 4278190080
0.36200377 0.003691551 0.96700007 4278190080
0.36748582 0.003691551 0.96700007 4278190080
0.37242347 0.0032189537 0.96640003 4278190080
0.37779638 0.00134291 0.96733338 4278190080
0.38001171 0.0013396706 0.96500003 4278190080
0.29332933 -0.023073908 0.97300005 4278190080
0.29805738 -0.020710228 0.97300005 4278190080
0.29884538 -0.017558657 0.97300005 4278190080
0.30120939 -0.01598287 0.97300005 4278190080
0.29922283 -0.012814794 0.97166675 4278190080
0.30079666 -0.012814794 0.97166675 4278190080
0.29870954 -0.0096498802 0.97000003 4278190080
0.30028072 -0.0096498802 0.97000003 4278190080
0.34934625 -0.00022454673 0.97100008 4278190080
0.35297689 -0.00022485507 0.97233343 4278190080
0.35636985 -0.00022500924 0.97300005 4278190080
0.37803414 -0.0010139432 0.97400004 4278190080
0.38247168 -0.0010131625 0.97325003 4278190080
0.3873575 -0.0010115142 0.97166675 4278190080
0.39249581 -0.00101056 0.97075015 4278190080
0.34934625 0.0013480004 0.97100008 4278190080
0.35297689 0.0013498514 0.97233343 4278190080
0.35813063 0.0013514708 0.97350001 4278190080
0.36304665 0.001352165 0.97400004 4278190080
0.36790392 0.0013497357 0.9722501 4278190080
0.37255374 0.001346612 0.97000003 4278190080
0.29660505 -0.02314505 0.97600007 4278190080
0.30196518 -0.017648885 0.97800004 4278190080
0.34271011 -0.0018118998 0.97900003 4278190080
0.3590495 -0.000225703 0.97600007 4278190080
0.36063039 -0.000225703 0.97600007 4278190080
0.36808181 -0.0010191483 0.97900003 4278190080
0.37245813 -0.0010181074 0.9780001 4278190080
0.37603271 -0.0010170663 0.97700012 4278190080
0.3590495 0.0013549416 0.97600007 4278190080
0.36379212 0.0013549416 0.97600007 4278190080
0.29793787 -0.025699019 0.98300004 4278190080
0.3018541 -0.022082707 0.98150003 4278190080
0.30320024 -0.01931143 0.98200005 4278190080
0.3055861 -0.016130708 0.98200005 4278190080
0.30537865 -0.012941732 0.98133343 4278190080
0.37394628 -0.0050083552 0.98400003 4278190080
0.37793085 -0.0050083552 0.98400003 4278190080
0.38271233 -0.0050083552 0.98400003 4278190080
0.38589999 -0.0050083552 0.98400003 4278190080
0.34764808 -0.0018211537 0.98400003 4278190080
0.35721102 -0.0018211537 0.98400003 4278190080
0.36284494 -0.0014202667 0.98200005 4278190080
0.36565581 -0.0010212304 0.98100007 4278190080
0.37394628 -0.0034147543 0.98400003 4278190080
0.37793085 -0.0034147545 0.98400003 4278190080
0.38271233 -0.0034147545 0.98400003 4278190080
0.38789451 -0.0034112842 0.98300004 4278190080
0.39227331 -0.0034078138 0.98200005 4278190080
0.397246 -0.0034095489 0.98250008 4278190080
0.40261212 -0.0034078138 0.98200005 4278190080
0.30456057 -0.023453332 0.98900002 4278190080
0.30616251 -0.023453332 0.98900002 4278190080
0.30714205 -0.017811298 0.98700005 4278190080
0.36727768 -0.0050261696 0.98750007 4278190080
0.37188894 -0.0050236247 0.98700005 4278190080
0.34959683 -0.0018230046 0.98500007 4278190080
0.35278773 -0.0018230047 0.98500007 4278190080
0.36236042 -0.0018230046 0.98500007 4278190080
0.36727768 -0.0034269004 0.98750007 4278190080
0.37188894 -0.0034251653 0.98700005 4278190080
0.30207008 -0.027874583 0.99239999 4278190080
0.308698 -0.021114642 0.99200004 4278190080
0.308698 -0.019508084 0.99200004 4278190080
0.31110817 -0.016294971 0.99200004 4278190080
0.36197597 -0.0050414386 0.99050009 4278190080
0.37334549 -0.006662339 0.99300003 4278190080
0.37817073 -0.006662339 0.99300003 4278190080
0.38299593 -0.006662339 0.99300003 4278190080
0.38782117 -0.006662339 0.99300003 4278190080
0.3926464 -0.0058582514 0.99300003 4278190080
0.39666742 -0.0058582509 0.99300003 4278190080
0.36197597 -0.0034373109 0.99050003 4278190080
0.30662045 -0.02727602 0.99700004 4278190080
0.31025395 -0.023643047 0.99700004 4278190080
0.31267625 -0.017991757 0.99700004 4278190080
0.36721209 -0.0066824672 0.99600005 4278190080
0.37087414 -0.0066757579 0.99500006 4278190080
0.39988378 -0.0058700508 0.99500006 4278190080
0.40270638 -0.0058759497 0.99600005 4278190080
0.4073396 -0.0058729998 0.99549997 4278190080
0.41279924 -0.0058818492 0.99700004 4278190080
0.41522157 -0.0058818492 0.99700004 4278190080
0.31509858 -0.0034598678 0.99700004 4278190080
0.31361711 -0.021284921 1 4278190080
0.31361711 -0.019665409 1 4278190080
0.37304372 -0.0091659892 1.003 4278190080
0.37754077 -0.0091568511 1.002 4278190080
0.38322124 -0.0091568502 1.002 4278190080
0.38766518 -0.0091659892 1.003 4278190080
0.39091441 -0.0091659892 1.003 4278190080
0.41809073 -0.0058995485 1 4278190080
0.30948776 -0.028715592 1.005 4278190080
0.31165823 -0.027901789 1.005 4278190080
0.31437129 -0.023832761 1.005 4278190080
0.31599912 -0.023832761 1.005 4278190080
0.31794301 -0.01815417 1.006 4278190080
0.40186042 -0.01000802 1.006 4278190080
0.40592474 -0.010027917 1.008 4278190080
0.39413565 -0.0091842674 1.005 4278190080
0.39739135 -0.0091842664 1.005 4278190080
0.40186042 -0.0083787907 1.006 4278190080
0.40592474 -0.0083954483 1.008 4278190080
0.31957245 -0.0034911004 1.006 4278190080
0.32120192 -0.0034911004 1.006 4278190080
0.31461054 -0.02888703 1.011 4278190080
0.31706691 -0.026431037 1.011 4278190080
0.31920719 -0.021497769 1.01 4278190080
0.31920719 -0.019862061 1.01 4278190080
0.38185063 -0.012015614 1.0104001 4278190080
0.38817343 -0.011691234 1.0106667 4278190080
0.39157602 -0.01169509 1.011 4278190080
0.40918407 -0.010047814 1.01 4278190080
0.41259262 -0.010051129 1.0103333 4278190080
0.41695824 -0.010057761 1.011 4278190080
0.4210647 -0.010077658 1.013 4278190080
0.40918407 -0.008412106 1.01 4278190080
0.41259262 -0.0084148822 1.0103333 4278190080
0.41695824 -0.0084204338 1.011 4278190080
0.4210647 -0.0084370924 1.013 4278190080
0.32208595 -0.02245681 1.0165 4278190080
0.32503337 -0.020843718 1.018 4278190080
0.39476931 -0.011741361 1.0150001 4278190080
0.39743146 -0.011747144 1.0155001 4278190080
0.40253171 -0.011776065 1.018 4278190080
0.42478016 -0.010107503 1.016 4278190080
0.32593349 -0.0068149567 1.0156667 4278190080
0.42478016 -0.0084620779 1.016 4278190080
0.31906337 -0.029144185 1.0200001 4278190080
0.32126626 -0.028318232 1.0200001 4278190080
0.32497281 -0.023431236 1.023 4278190080
0.32662979 -0.023431236 1.023 4278190080
0.38680115 -0.015103006 1.0200001 4278190080
0.39201471 -0.015112877 1.0206667 4278190080
0.39685863 -0.015140024 1.0225 4278190080
0.38680115 -0.013451103 1.0200001 4278190080
0.39201471 -0.013459895 1.0206667 4278190080
0.39685863 -0.013484072 1.0225 4278190080
0.40745291 -0.0117992 1.0200001 4278190080
0.4125253 -0.011826192 1.0223334 4278190080
0.32994381 -0.0052068569 1.023 4278190080
0.33160079 -0.0052068569 1.023 4278190080
0.4289307 -0.0076694419 1.0200001 4278190080
0.32994381 -0.0035500953 1.023 4278190080
0.33160079 -0.0035500953 1.023 4278190080
0.32312557 -0.031305306 1.0276667 4278190080
0.32457998 -0.028512571 1.0270001 4278190080
0.32707518 -0.026017712 1.0270001 4278190080
0.32989132 -0.021048468 1.028 4278190080
0.332389 -0.016053891 1.028 4278190080
0.39291063 -0.017707258 1.0273334 4278190080
0.40289477 -0.01521159 1.0273334 4278190080
0.40648589 -0.015221462 1.028 4278190080
0.33206564 -0.011880175 1.0270001 4278190080
0.40289477 -0.013547811 1.0273334 4278190080
0.40648589 -0.013556602 1.028 4278190080
0.41775143 -0.011857039 1.0250001 4278190080
0.4227252 -0.011880175 1.0270001 4278190080
0.42729962 -0.011891743 1.028 4278190080
0.33141899 -0.007707037 1.0250001 4278190080
0.43352371 -0.007707037 1.0250001 4278190080
0.43729022 -0.0085620247 1.028 4278190080
0.32762975 -0.031218778 1.034 4278190080
0.33014196 -0.03038149 1.034 4278190080
0.32846713 -0.028706914 1.034 4278190080
0.33125851 -0.027032336 1.034 4278190080
0.33117494 -0.023637375 1.0320001 4278190080
0.3921102 -0.020334031 1.034 4278190080
0.39629725 -0.020334031 1.034 4278190080
0.33349159 -0.018659456 1.034 4278190080
0.33516642 -0.018659456 1.034 4278190080
0.39810085 -0.017753221 1.0300001 4278190080
0.40215909 -0.017822167 1.034 4278190080
0.40894505 -0.015251075 1.0300001 4278190080
0.41304541 -0.015310302 1.034 4278190080
0.40894505 -0.013582977 1.0300001 4278190080
0.41304541 -0.013635726 1.034 4278190080
0.43146962 -0.011938015 1.0320001 4278190080
0.3372432 -0.0069306344 1.0326668 4278190080
0.33386984 -0.0019062888 1.0300001 4278190080
0.33637235 -0.002740338 1.0300001 4278190080
0.33342129 -0.030528404 1.039 4278190080
0.33342129 -0.028845729 1.039 4278190080
0.33402911 -0.022045163 1.0356667 4278190080
0.33570662 -0.022045163 1.0356667 4278190080
0.39721781 -0.022443701 1.0386001 4278190080
0.40164623 -0.020393029 1.0370001 4278190080
0.33865833 -0.01619444 1.0370001 4278190080
0.40694776 -0.017885366 1.0376668 4278190080
0.41083542 -0.017908346 1.039 4278190080
0.41760474 -0.015354723 1.0370001 4278190080
0.4226158 -0.015384336 1.039 4278190080
0.33800519 -0.011972718 1.035 4278190080
0.41760474 -0.013675287 1.0370001 4278190080
0.42261586 -0.013701662 1.039 4278190080
0.43440035 -0.01113462 1.0350001 4278190080
0.43776089 -0.011156136 1.0370001 4278190080
0.34234834 -0.0052832039 1.0380001 4278190080
0.34307799 -0.0022009236 1.0376667 4278190080
0.33153388 -0.03227308 1.041 4278190080
0.33756232 -0.030675314 1.044 4278190080
0.3369157 -0.027243106 1.0420001 4278190080
0.40097541 -0.026448386 1.044 4278190080
0.33944735 -0.021335121 1.0420001 4278190080
0.34103975 -0.022623675 1.043 4278190080
0.39982316 -0.023000559 1.041 4278190080
0.40316749 -0.022512462 1.0418 4278190080
0.40858495 -0.020530686 1.044 4278190080
0.33944735 -0.018803822 1.0420001 4278190080
0.34113511 -0.018803822 1.0420001 4278190080
0.41331241 -0.01794282 1.041 4278190080
0.42805555 -0.015428757 1.0420001 4278190080
0.4305872 -0.015428757 1.0420001 4278190080
0.34326157 -0.012070197 1.0433334 4278190080
0.34601742 -0.010386057 1.044 4278190080
0.42805555 -0.013741225 1.0420001 4278190080
0.4305872 -0.013741225 1.0420001 4278190080
0.44409627 -0.011231443 1.044 4278190080
0.34350228 -0.0078311022 1.0415001 4278190080
0.33779299 -0.032469425 1.0473334 4278190080
0.34241396 -0.031656969 1.0485001 4278190080
0.34181526 -0.027364567 1.0466667 4278190080
0.40303645 -0.028067436 1.0476002 4278190080
0.407231 -0.027648972 1.0482857 4278190080
0.41139135 -0.029123358 1.049 4278190080
0.34512591 -0.021478446 1.049 4278190080
0.40825927 -0.023144174 1.0475 4278190080
0.41246837 -0.021893332 1.0485001 4278190080
0.34413892 -0.016334992 1.046 4278190080
0.34716484 -0.0168915 1.049 4278190080
0.41783899 -0.018029001 1.046 4278190080
0.42158604 -0.018080708 1.049 4278190080
0.43393436 -0.015487986 1.046 4278190080
0.43772763 -0.015532405 1.049 4278190080
0.34785241 -0.012462551 1.0480001 4278190080
0.43393436 -0.013793975 1.046 4278190080
0.43772763 -0.013833536 1.049 4278190080
0.44834402 -0.011274476 1.0480001 4278190080
0.34237924 -0.035987318 1.051 4278190080
0.34644195 -0.036055796 1.0530001 4278190080
0.33812332 -0.034285206 1.051 4278190080
0.34237921 -0.034285206 1.051 4278190080
0.34622261 -0.032625515 1.0523334 4278190080
0.34578392 -0.027476775 1.051 4278190080
0.41264391 -0.027004937 1.0515715 4278190080
0.34578392 -0.02407256 1.051 4278190080
0.41466564 -0.023265693 1.0530001 4278190080
0.41667506 -0.022399912 1.0523334 4278190080
0.34900033 -0.019002326 1.0530001 4278190080
0.42409214 -0.017264128 1.051 4278190080
0.42579454 -0.017264128 1.051 4278190080
0.44196689 -0.015562019 1.051 4278190080
0.44536626 -0.015591633 1.0530001 4278190080
0.44196689 -0.013859912 1.051 4278190080
0.44536626 -0.013886286 1.0530001 4278190080
0.36042318 -0.048266694 1.059 4278190080
0.34734407 -0.038321029 1.0550002 4278190080
0.34947002 -0.03276911 1.057 4278190080
0.3511821 -0.032769114 1.057 4278190080
0.34947002 -0.027633637 1.057 4278190080
0.34902918 -0.022470862 1.0556667 4278190080
0.35073912 -0.022470862 1.0556667 4278190080
0.42223305 -0.020786336 1.057 4278190080
0.35222644 -0.01647554 1.0550001 4278190080
0.35613486 -0.015680475 1.059 4278190080
0.42912388 -0.017329833 1.0550001 4278190080
0.4325071 -0.017362686 1.057 4278190080
0.44877541 -0.015621247 1.0550001 4278190080
0.45304996 -0.015680475 1.059 4278190080
0.44877541 -0.013912661 1.0550001 4278190080
0.45304996 -0.013965411 1.059 4278190080
0.36230588 -0.055283114 1.062 4278190080
0.36273515 -0.052273251 1.062 4278190080
0.35389575 -0.019128649 1.0600001 4278190080
0.35806236 -0.017810456 1.0632001 4278190080
0.42933783 -0.019200832 1.064 4278190080
0.43106124 -0.019200832 1.064 4278190080
0.43802539 -0.017411966 1.0600001 4278190080
0.44315225 -0.017444817 1.062 4278190080
0.44745266 -0.017444817 1.062 4278190080
0.45260385 -0.017477671 1.064 4278190080
0.45669729 -0.016148282 1.0615001 4278190080
0.45720005 -0.013987388 1.0606667 4278190080
0.36781096 -0.055595446 1.0680001 4278190080
0.44340712 -0.051790245 1.0680001 4278190080
0.35829657 -0.021867476 1.0680001 4278190080
0.36002645 -0.021867476 1.0680001 4278190080
0.36175632 -0.018408198 1.0680001 4278190080
0.43441167 -0.019273017 1.0680001 4278190080
0.36797678 -0.058353364 1.0710001 4278190080
0.44430566 -0.054017119 1.0710001 4278190080
0.44775438 -0.052346628 1.0723335 4278190080
0.36264589 -0.022823451 1.0723333 4278190080
0.36450726 -0.018459905 1.0710001 4278190080
0.43782485 -0.019309107 1.0700001 4278190080
0.44215766 -0.019309107 1.0700001 4278190080
0.45255646 -0.019309107 1.0700001 4278190080
0.45602268 -0.019309107 1.0700001 4278190080
0.36757958 -0.022616938 1.079 4278190080
0.45195606 -0.058022872 1.0810001 4278190080
0.45454645 -0.054622356 1.0830001 4278190080
0.42375222 -0.11885998 1.085 4278190080
0.42662051 -0.1187121 1.0863334 4278190080
0.43060613 -0.11841635 1.0890001 4278190080
0.45794666 -0.061979566 1.0890001 4278190080
0.45626462 -0.057358984 1.085 4278190080
0.36995277 -0.024897119 1.087 4278190080
0.37171343 -0.024897119 1.087 4278190080
0.50898731 -0.00025090959 1.085 4278190080
0.51250219 -0.00025090959 1.085 4278190080
0.51744455 -0.00025160334 1.0880001 4278190080
0.44063622 -0.15322848 1.092 4278190080
0.43356118 -0.12051108 1.092 4278190080
0.42815322 -0.11630242 1.0940001 4278190080
0.43206996 -0.11679045 1.0936 4278190080
0.43661457 -0.1188513 1.0930001 4278190080
0.46270722 -0.061378267 1.0940001 4278190080
0.46270722 -0.057834774 1.0940001 4278190080
0.51320928 -0.0029106115 1.0940001 4278190080
0.45378929 -0.15645224 1.0960001 4278190080
0.45733979 -0.15645224 1.0960001 4278190080
0.46118617 -0.15704389 1.0960001 4278190080
0.44343376 -0.15290226 1.0960001 4278190080
0.44709674 -0.15393007 1.0970001 4278190080
0.44216803 -0.14873573 1.098 4278190080
0.43772185 -0.11672767 1.098 4278190080
0.46355313 -0.064152956 1.0960001 4278190080
0.38703513 -0.056268007 1.098 4278190080
0.38703513 -0.051822443 1.098 4278190080
0.38673869 -0.047673255 1.098 4278190080
0.47907859 -0.033121698 1.0970001 4278190080
0.37656632 -0.02776574 1.0960001 4278190080
0.51769799 -0.0029159326 1.0960001 4278190080
0.45277295 -0.15524176 1.1 4278190080
0.45811808 -0.15524176 1.1 4278190080
0.46299368 -0.1553829 1.1010001 4278190080
0.44734877 -0.15106064 1.102 4278190080
0.45256591 -0.15279938 1.1016667 4278190080
0.4580569 -0.15284534 1.102 4278190080
0.46272996 -0.15291511 1.1025 4278190080
0.46783084 -0.15401833 1.1040001 4278190080
0.44377881 -0.14660051 1.102 4278190080
0.44816065 -0.14865451 1.1040001 4278190080
0.44297343 -0.11694028 1.1 4278190080
0.43296096 -0.11468361 1.1040001 4278190080
0.43653736 -0.11468361 1.1040001 4278190080
0.46609083 -0.067181215 1.102 4278190080
0.38736185 -0.061045337 1.1040001 4278190080
0.39004415 -0.061045337 1.1040001 4278190080
0.46876824 -0.061827101 1.102 4278190080
0.38736185 -0.059257396 1.1040001 4278190080
0.39004415 -0.059257396 1.1040001 4278190080
0.39183235 -0.051211655 1.1040001 4278190080
0.39183235 -0.048529744 1.1040001 4278190080
0.48392463 -0.034226205 1.1040001 4278190080
0.48572537 -0.032379501 1.102 4278190080
0.51790047 -0.0056191301 1.1040001 4278190080
0.52362728 -0.0029292351 1.1010001 4278190080
0.52815163 -0.0029345562 1.103 4278190080
0.53310013 -0.002937217 1.1040001 4278190080
0.45296544 -0.15085125 1.1070001 4278190080
0.45786047 -0.15098752 1.108 4278190080
0.46234718 -0.15098752 1.108 4278190080
0.4655152 -0.15174684 1.1070001 4278190080
0.44888711 -0.14650148 1.108 4278190080
0.45182359 -0.14777997 1.1075001 4278190080
0.45786047 -0.14919311 1.108 4278190080
0.46234718 -0.14919311 1.108 4278190080
0.46503919 -0.14919311 1.108 4278190080
0.45068178 -0.14380984 1.108 4278190080
0.45159522 -0.12187314 1.1076 4278190080
0.44754109 -0.11644494 1.108 4278190080
0.43911964 -0.11489137 1.1060001 4278190080
0.44180679 -0.11489137 1.1060001 4278190080
0.46957409 -0.064738289 1.1060001 4278190080
0.47136551 -0.064738289 1.1060001 4278190080
0.39254221 -0.056677975 1.1060001 4278190080
0.39254221 -0.053991202 1.1060001 4278190080
0.47939664 -0.043322314 1.108 4278190080
0.48211417 -0.038766161 1.1060001 4278190080
0.48927993 -0.03249703 1.1060001 4278190080
0.55377173 -0.011002854 1.1060001 4278190080
0.52246892 -0.0056394893 1.108 4278190080
0.54302311 -0.0056293099 1.1060001 4278190080
0.54669708 -0.00833112 1.108 4278190080
0.46899682 -0.15229517 1.1110001 4278190080
0.47300392 -0.15242171 1.1126668 4278190080
0.47657943 -0.15270722 1.1140001 4278190080
0.4532932 -0.14676592 1.11 4278190080
0.45771226 -0.14703035 1.1120001 4278190080
0.46221513 -0.14703035 1.1120001 4278190080
0.46702805 -0.14778219 1.1136001 4278190080
0.45279941 -0.14208636 1.1125716 4278190080
0.45763326 -0.1445886 1.1140001 4278190080
0.45708552 -0.12279072 1.1126667 4278190080
0.45317203 -0.11714731 1.1128573 4278190080
0.45763326 -0.11842862 1.1140001 4278190080
0.47657943 -0.061598286 1.1140001 4278190080
0.4757238 -0.058786348 1.1120001 4278190080
0.48472959 -0.041677818 1.1120001 4278190080
0.48803806 -0.037453972 1.1113334 4278190080
0.48925155 -0.034412216 1.11 4278190080
0.55284089 -0.011055912 1.1113334 4278190080
0.55777729 -0.013788646 1.1140001 4278190080
0.52259159 -0.0083762333 1.1140001 4278190080
0.52610886 -0.0056496686 1.11 4278190080
0.53161359 -0.0056700283 1.1140001 4278190080
0.54203933 -0.0056564552 1.1113334 4278190080
0.47647983 -0.15053962 1.118 4278190080
0.46833086 -0.14510778 1.118 4278190080
0.47257718 -0.14773555 1.1173334 4278190080
0.45837107 -0.14239185 1.118 4278190080
0.46189594 -0.14344457 1.1171429 4278190080
0.46199283 -0.12700163 1.118 4278190080
0.4619928 -0.12247509 1.118 4278190080
0.45755106 -0.11593017 1.1160001 4278190080
0.4615401 -0.11749589 1.118 4278190080
0.47829071 -0.065440692 1.118 4278190080
0.47829071 -0.063630082 1.118 4278190080
0.47924271 -0.056286745 1.1160001 4278190080
0.48376179 -0.049057242 1.1160001 4278190080
0.48734507 -0.045523927 1.118 4278190080
0.48855233 -0.041902695 1.118 4278190080
0.49096683 -0.040997386 1.118 4278190080
0.49370378 -0.036405604 1.1160001 4278190080
0.49551144 -0.036405604 1.1160001 4278190080
0.49370378 -0.034598231 1.1160001 4278190080
0.49551144 -0.034598231 1.1160001 4278190080
0.54974049 -0.011102336 1.1160001 4278190080
0.55154818 -0.011102336 1.1160001 4278190080
0.55796921 -0.013838157 1.118 4278190080
0.53772765 -0.0056869932 1.1173334 4278190080
0.54070234 -0.0056802072 1.1160001 4278190080
0.547104 -0.0084063103 1.118 4278190080
0.48631933 -0.15680853 1.1240001 4278190080
0.48212323 -0.15289532 1.1220001 4278190080
0.48631933 -0.15407804 1.1240001 4278190080
0.47321981 -0.14549716 1.1210001 4278190080
0.47757876 -0.14744402 1.1220001 4278190080
0.46430412 -0.14182293 1.1206666 4278190080
0.46758279 -0.14199114 1.1220001 4278190080
0.47224516 -0.14302866 1.1230001 4278190080
0.46364573 -0.13745001 1.1220001 4278190080
0.46463335 -0.12178726 1.12 4278190080
0.46639696 -0.12314364 1.1213335 4278190080
0.46463335 -0.11815954 1.12 4278190080
0.46644747 -0.11815955 1.12 4278190080
0.45901039 -0.11403072 1.1240001 4278190080
0.46182835 -0.1138278 1.1220001 4278190080
0.46720308 -0.11403072 1.1240001 4278190080
0.48186743 -0.060116198 1.12 4278190080
0.48186743 -0.058302343 1.12 4278190080
0.48458862 -0.053767711 1.12 4278190080
0.48908868 -0.047503896 1.1220001 4278190080
0.4936592 -0.038349945 1.12 4278190080
0.49999282 -0.036601335 1.1220001 4278190080
0.49999282 -0.034784243 1.1220001 4278190080
0.50332719 -0.032342944 1.1213335 4278190080
0.5045439 -0.029280674 1.12 4278190080
0.52728271 -0.012092089 1.1240001 4278190080
0.55823278 -0.013912422 1.1240001 4278190080
0.52812737 -0.0084213484 1.12 4278190080
0.53274447 -0.0084514245 1.1240001 4278190080
0.54457831 -0.0084514245 1.1240001 4278190080
0.54639894 -0.0084514245 1.1240001 4278190080
0.48627275 -0.15161683 1.126 4278190080
0.47988933 -0.1461461 1.126 4278190080
0.48262507 -0.14888147 1.126 4278190080
0.47077018 -0.1406754 1.126 4278190080
0.4771536 -0.14341074 1.126 4278190080
0.46803442 -0.13702825 1.126 4278190080
0.47139728 -0.13812259 1.1275001 4278190080
0.47202441 -0.13190804 1.1290001 4278190080
0.47118822 -0.12255004 1.127 4278190080
0.44745573 -0.11524766 1.127 4278190080
0.45253181 -0.11514539 1.126 4278190080
0.45709142 -0.11514539 1.126 4278190080
0.47077021 -0.11696896 1.126 4278190080
0.45253181 -0.11332182 1.126 4278190080
0.46745268 -0.11179531 1.1290001 4278190080
0.47099677 -0.11230415 1.1280001 4278190080
0.47111005 -0.10996689 1.1290001 4278190080
0.48275054 -0.067791075 1.127 4278190080
0.48665395 -0.066084564 1.1290001 4278190080
0.48418111 -0.063258976 1.1275001 4278190080
0.48600739 -0.063258976 1.1275001 4278190080
0.48718467 -0.056791112 1.126 4278190080
0.49214002 -0.051457126 1.1290001 4278190080
0.49309206 -0.047109351 1.127 4278190080
0.49356809 -0.044026107 1.126 4278190080
0.4976261 -0.04140076 1.1290001 4278190080
0.49903959 -0.038555391 1.126 4278190080
0.51408434 -0.026773321 1.1290001 4278190080
0.51591307 -0.026773321 1.1290001 4278190080
0.51774174 -0.024030676 1.1290001 4278190080
0.52322781 -0.017631169 1.1290001 4278190080
0.52505648 -0.017631169 1.1290001 4278190080
0.52688521 -0.014888525 1.1290001 4278190080
0.5524869 -0.01214588 1.1290001 4278190080
0.5373401 -0.0084664635 1.126 4278190080
0.54151475 -0.0084890202 1.1290001 4278190080
0.54517215 -0.0084890202 1.1290001 4278190080
0.49117991 -0.15686926 1.131 4278190080
0.48837817 -0.15072447 1.133 4278190080
0.49114725 -0.15246855 1.1323333 4278190080
0.48385221 -0.14679508 1.131 4278190080
0.48703116 -0.14784232 1.132 4278190080
0.49021333 -0.14888956 1.133 4278190080
0.47469252 -0.14130007 1.131 4278190080
0.47786337 -0.141425 1.132 4278190080
0.48169267 -0.14321502 1.1316667 4278190080
0.47377658 -0.13763672 1.131 4278190080
0.47715646 -0.13873592 1.1325001 4278190080
0.48103747 -0.13971502 1.133 4278190080
0.47644955 -0.13145792 1.133 4278190080
0.47644955 -0.1222834 1.133 4278190080
0.47469252 -0.11657254 1.131 4278190080
0.47648701 -0.11805179 1.132 4278190080
0.47469252 -0.11382503 1.131 4278190080
0.47646457 -0.11178416 1.1326001 4278190080
0.47186163 -0.10852159 1.133 4278190080
0.48110431 -0.075359978 1.131 4278190080
0.47835639 -0.073528305 1.131 4278190080
0.48110431 -0.073528305 1.131 4278190080
0.49021333 -0.060813975 1.133 4278190080
0.4920485 -0.056532521 1.133 4278190080
0.49296612 -0.053474341 1.133 4278190080
0.49663645 -0.047969621 1.133 4278190080
0.50764751 -0.03604272 1.133 4278190080
0.50949925 -0.03323159 1.131 4278190080
0.51224715 -0.032315753 1.131 4278190080
0.51316309 -0.029568253 1.131 4278190080
0.52140683 -0.021325741 1.131 4278190080
0.53331435 -0.012167396 1.131 4278190080
0.54430598 -0.0085040582 1.131 4278190080
0.49654812 -0.15770145 1.1370001 4278190080
0.49378565 -0.15125659 1.1370001 4278190080
0.49698484 -0.15415332 1.138 4278190080
0.48740181 -0.14608882 1.1350001 4278190080
0.49194291 -0.14757276 1.1370001 4278190080
0.48457739 -0.14112897 1.1370001 4278190080
0.48648262 -0.14363796 1.1350001 4278190080
0.49096444 -0.14414416 1.1390001 4278190080
0.47729057 -0.13628536 1.1350001 4278190080
0.48223868 -0.13756627 1.138 4278190080
0.47729057 -0.13444722 1.1350001 4278190080
0.48266244 -0.13399872 1.1390001 4278190080
0.47729057 -0.12709463 1.1350001 4278190080
0.48174 -0.12569791 1.1390001 4278190080
0.48174 -0.12200866 1.1390001 4278190080
0.48089409 -0.11719096 1.1370001 4278190080
0.48145804 -0.11271844 1.1383333 4278190080
0.47223791 -0.10626712 1.1383334 4278190080
0.47723073 -0.10678528 1.1365001 4278190080
0.48174 -0.10725167 1.1390001 4278190080
0.47260666 -0.090490855 1.1370001 4278190080
0.47721076 -0.090490855 1.1370001 4278190080
0.48296991 -0.078352533 1.1390001 4278190080
0.48542976 -0.078659967 1.1390001 4278190080
0.48776931 -0.071218073 1.138 4278190080
0.49096444 -0.070359156 1.1390001 4278190080
0.48911956 -0.068514533 1.1390001 4278190080
0.49096444 -0.068514533 1.1390001 4278190080
0.49194399 -0.062870063 1.1370001 4278190080
0.49378565 -0.057345908 1.1370001 4278190080
0.49562728 -0.057345908 1.1370001 4278190080
0.498344 -0.050990589 1.1390001 4278190080
0.50018889 -0.050990589 1.1390001 4278190080
0.50115222 -0.046297587 1.1370001 4278190080
0.50336224 -0.042246539 1.1370001 4278190080
0.50578594 -0.038863562 1.1350001 4278190080
0.52878469 -0.021476585 1.1390001 4278190080
0.53155202 -0.017787337 1.1390001 4278190080
0.5333811 -0.014994024 1.1370001 4278190080
0.5389061 -0.012231944 1.1370001 4278190080
0.54354382 -0.012253461 1.1390001 4278190080
0.5499078 -0.012210429 1.1350001 4278190080
0.55174625 -0.012210429 1.1350001 4278190080
0.55824345 -0.014994024 1.1370001 4278190080
0.56008506 -0.014073331 1.1370001 4278190080
0.49824274 -0.15112925 1.143 4278190080
0.50009412 -0.15112925 1.143 4278190080
0.4936747 -0.14624512 1.141 4278190080
0.49552283 -0.14716905 1.141 4278190080
0.48905438 -0.14162546 1.141 4278190080
0.49301732 -0.1427149 1.1423334 4278190080
0.49552283 -0.14439726 1.141 4278190080
0.48738429 -0.1376479 1.1425 4278190080
0.49083725 -0.13909706 1.143 4278190080
0.48258591 -0.13146222 1.141 4278190080
0.48258591 -0.12869042 1.141 4278190080
0.48620883 -0.12058603 1.143 4278190080
0.4862088 -0.11688382 1.143 4278190080
0.4862088 -0.11225607 1.143 4278190080
0.48180282 -0.10192562 1.1413332 4278190080
0.48443404 -0.081569888 1.141 4278190080
0.48628217 -0.081569888 1.141 4278190080
0.49453998 -0.065978482 1.143 4278190080
0.49731705 -0.061350729 1.143 4278190080
0.49731705 -0.059499625 1.143 4278190080
0.50101978 -0.05579742 1.143 4278190080
0.50101978 -0.053946316 1.143 4278190080
0.50291532 -0.048308332 1.141 4278190080
0.51490504 -0.036360838 1.143 4278190080
0.51675642 -0.036360838 1.143 4278190080
0.51770037 -0.033525415 1.141 4278190080
0.51954854 -0.029829688 1.141 4278190080
0.52262878 -0.027981825 1.141 4278190080
0.52601695 -0.024286095 1.141 4278190080
0.55841219 -0.015073148 1.143 4278190080
0.56415153 -0.017294472 1.143 4278190080
0.56674337 -0.017849803 1.143 4278190080
0.54727048 -0.012274977 1.141 4278190080
0.55052388 -0.012285735 1.142 4278190080
0.50370204 -0.1525853 1.1470001 4278190080
0.49911454 -0.14861217 1.1450001 4278190080
0.50127542 -0.14669262 1.1474001 4278190080
0.4976331 -0.14249432 1.148 4278190080
0.49261254 -0.13747449 1.148 4278190080
0.48724508 -0.13155222 1.1450001 4278190080
0.4920547 -0.13412793 1.148 4278190080
0.48769766 -0.1274552 1.1465001 4278190080
0.48705959 -0.12357855 1.1450001 4278190080
0.4920547 -0.12297272 1.1479999 4278190080
0.49205467 -0.11739513 1.1479999 4278190080
0.48705956 -0.10781664 1.1450001 4278190080
0.48748496 -0.10234129 1.146 4278190080
0.48705959 -0.083710186 1.1450001 4278190080
0.48984152 -0.076292813 1.1450001 4278190080
0.48984152 -0.074438475 1.1450001 4278190080
0.5087899 -0.046745501 1.148 4278190080
0.5087899 -0.044886298 1.148 4278190080
0.51024222 -0.041987486 1.1450001 4278190080
0.51302409 -0.039205972 1.1450001 4278190080
0.5723716 -0.020662548 1.1450001 4278190080
0.53991598 -0.015099522 1.1450001 4278190080
0.5723716 -0.018808207 1.1450001 4278190080
0.50636512 -0.14812145 1.1520001 4278190080
0.5105145 -0.14978029 1.154 4278190080
0.49843401 -0.14019233 1.1520001 4278190080
0.5025391 -0.14243115 1.1520001 4278190080
0.49750265 -0.1373938 1.1520001 4278190080
0.50116855 -0.13763234 1.154 4278190080
0.49291193 -0.13156796 1.1500001 4278190080
0.49714279 -0.13288213 1.1533334 4278190080
0.49291193 -0.12784307 1.1500001 4278190080
0.49743018 -0.12735328 1.154 4278190080
0.4928968 -0.11242314 1.1504 4278190080
0.49283618 -0.10754294 1.1520001 4278190080
0.4936918 -0.10399181 1.154 4278190080
0.48853818 -0.097168028 1.1506667 4278190080
0.49040198 -0.097168028 1.1506667 4278190080
0.49011788 -0.089663051 1.1500001 4278190080
0.4936918 -0.080630332 1.154 4278190080
0.4936918 -0.078761414 1.154 4278190080
0.49384329 -0.072901092 1.1500001 4278190080
0.49663734 -0.071969874 1.1500001 4278190080
0.4975687 -0.069176212 1.1500001 4278190080
0.50210315 -0.066613451 1.154 4278190080
0.49943143 -0.063588895 1.1500001 4278190080
0.50129414 -0.063588895 1.1500001 4278190080
0.50315684 -0.058001578 1.1500001 4278190080
0.50501955 -0.058001578 1.1500001 4278190080
0.50688225 -0.051483035 1.1500001 4278190080
0.5114491 -0.048858728 1.154 4278190080
0.52359879 -0.036710765 1.154 4278190080
0.52455729 -0.032915782 1.1520001 4278190080
0.52704519 -0.031982943 1.1520001 4278190080
0.53108811 -0.027318746 1.1520001 4278190080
0.53388703 -0.024520228 1.1520001 4278190080
0.53761888 -0.02172171 1.1520001 4278190080
0.57213891 -0.020788871 1.1520001 4278190080
0.57780522 -0.023628339 1.154 4278190080
0.53854829 -0.01795912 1.1500001 4278190080
0.5416528 -0.0170279 1.1500001 4278190080
0.54740685 -0.015178647 1.151 4278190080
0.55781913 -0.015183043 1.1513335 4278190080
0.56560808 -0.017990353 1.1520001 4278190080
0.5730719 -0.018923191 1.1520001 4278190080
0.50952685 -0.14723165 1.156 4278190080
0.51139927 -0.14723165 1.156 4278190080
0.50390959 -0.14067911 1.156 4278190080
0.50740588 -0.14214407 1.1565 4278190080
0.51134622 -0.14373557 1.1580001 4278190080
0.5029605 -0.13623266 1.1564 4278190080
0.50578201 -0.13787086 1.156 4278190080
0.5011009 -0.13225439 1.156 4278190080
0.50196791 -0.12873241 1.1580001 4278190080
0.4982923 -0.12195753 1.156 4278190080
0.49829227 -0.11727715 1.156 4278190080
0.49915439 -0.11372925 1.1580001 4278190080
0.49540305 -0.10153917 1.1580001 4278190080
0.49540305 -0.098726079 1.1580001 4278190080
0.49540305 -0.082785212 1.1580001 4278190080
0.5070104 -0.062085364 1.1566668 4278190080
0.50952685 -0.056432035 1.156 4278190080
0.50952685 -0.054559879 1.156 4278190080
0.51603538 -0.04621499 1.1580001 4278190080
0.51795274 -0.042390861 1.156 4278190080
0.52076137 -0.039582621 1.156 4278190080
0.5713675 -0.020897146 1.1580001 4278190080
0.57699454 -0.02371024 1.1580001 4278190080
0.54604602 -0.018084053 1.1580001 4278190080
0.55352885 -0.015244584 1.156 4278190080
0.55633748 -0.015244584 1.156 4278190080
0.56480271 -0.018084053 1.1580001 4278190080
0.56667835 -0.018084053 1.1580001 4278190080
0.51549172 -0.14786845 1.161 4278190080
0.5135541 -0.14153096 1.1630001 4278190080
0.50951499 -0.13760495 1.1616668 4278190080
0.51298892 -0.13814068 1.1630001 4278190080
0.50700766 -0.13321662 1.1616668 4278190080
0.51072842 -0.13399699 1.1630001 4278190080
0.5032683 -0.12624553 1.161 4278190080
0.5032683 -0.12342516 1.161 4278190080
0.49856699 -0.1112035 1.161 4278190080
0.50044751 -0.1112035 1.161 4278190080
0.49668646 -0.096161462 1.161 4278190080
0.49754208 -0.091618381 1.1630001 4278190080
0.49711427 -0.087776668 1.1620001 4278190080
0.49668646 -0.084879935 1.161 4278190080
0.49856699 -0.076418787 1.161 4278190080
0.50044751 -0.076418787 1.161 4278190080
0.50232804 -0.073598407 1.161 4278190080
0.506019 -0.071841702 1.1630001 4278190080
0.506019 -0.069958203 1.1630001 4278190080
0.51173067 -0.058556374 1.161 4278190080
0.5136112 -0.051975481 1.161 4278190080
0.51549172 -0.051975481 1.161 4278190080
0.52956611 -0.036997069 1.1630001 4278190080
0.53144985 -0.036997069 1.1630001 4278190080
0.53304321 -0.03223281 1.161 4278190080
0.53617746 -0.030352557 1.161 4278190080
0.53898489 -0.027579602 1.1630001 4278190080
0.54322338 -0.023341741 1.1630001 4278190080
0.54651994 -0.021929123 1.1630001 4278190080
0.57666022 -0.023812614 1.1630001 4278190080
0.55122936 -0.018162133 1.1630001 4278190080
0.51756376 -0.14185439 1.1656667 4278190080
0.52158636 -0.14217891 1.1683334 4278190080
0.51349378 -0.13611415 1.1650001 4278190080
0.51752681 -0.13697782 1.1670001 4278190080
0.52188396 -0.1384747 1.169 4278190080
0.50877619 -0.13139732 1.1650001 4278190080
0.51204509 -0.13198097 1.166 4278190080
0.5167079 -0.13362646 1.1680001 4278190080
0.50841391 -0.12682332 1.1663333 4278190080
0.51153994 -0.12878793 1.1670001 4278190080
0.50405872 -0.12102029 1.1650001 4278190080
0.507761 -0.12217465 1.1670001 4278190080
0.50434715 -0.11731283 1.1656667 4278190080
0.5062353 -0.11731283 1.1656667 4278190080
0.50492406 -0.11366817 1.1670001 4278190080
0.5068143 -0.11366817 1.1670001 4278190080
0.50151503 -0.10787378 1.1656667 4278190080
0.50208867 -0.1042183 1.1670001 4278190080
0.49839771 -0.094606034 1.1650001 4278190080
0.50294912 -0.081678383 1.169 4278190080
0.50294912 -0.079785176 1.169 4278190080
0.5124166 -0.071265727 1.169 4278190080
0.50971973 -0.067248419 1.1650001 4278190080
0.51160675 -0.067248419 1.1650001 4278190080
0.51349378 -0.061588217 1.1650001 4278190080
0.51525676 -0.064639494 1.169 4278190080
0.5172106 -0.05602403 1.1670001 4278190080
0.51915479 -0.049324453 1.1650001 4278190080
0.52377748 -0.046653993 1.169 4278190080
0.5248158 -0.042720892 1.1650001 4278190080
0.5276463 -0.039890792 1.1650001 4278190080
0.53892529 -0.033401519 1.169 4278190080
0.58531564 -0.026775284 1.169 4278190080
0.55123299 -0.022042256 1.169 4278190080
0.57297283 -0.02105956 1.1670001 4278190080
0.57679498 -0.023935467 1.169 4278190080
0.55738378 -0.018240217 1.1680001 4278190080
0.56321025 -0.018235013 1.1676668 4278190080
0.56632984 -0.018193368 1.1650001 4278190080
0.52322328 -0.13598298 1.1720001 4278190080
0.52696854 -0.13716568 1.174 4278190080
0.5175283 -0.13123779 1.1720001 4278190080
0.52202153 -0.13271734 1.1725 4278190080
0.52696854 -0.13336307 1.174 4278190080
0.51370692 -0.12688039 1.1726667 4278190080
0.5174877 -0.12795112 1.1732 4278190080
0.52126384 -0.12956046 1.174 4278190080
0.51227081 -0.12280199 1.1730001 4278190080
0.51555908 -0.12385652 1.174 4278190080
0.51131999 -0.11900099 1.1730001 4278190080
0.5089035 -0.11244868 1.174 4278190080
0.50372016 -0.10190379 1.1730001 4278190080
0.50562012 -0.10190379 1.1730001 4278190080
0.50414956 -0.099139512 1.174 4278190080
0.50605118 -0.099139512 1.174 4278190080
0.50795275 -0.077274472 1.174 4278190080
0.50898576 -0.074295722 1.1720001 4278190080
0.51088411 -0.074295722 1.1720001 4278190080
0.51657909 -0.067652479 1.1720001 4278190080
0.51936221 -0.062064003 1.174 4278190080
0.52126384 -0.062064003 1.174 4278190080
0.51847744 -0.05911117 1.1720001 4278190080
0.52037579 -0.05911117 1.1720001 4278190080
0.52227414 -0.052467927 1.1720001 4278190080
0.53229302 -0.042480528 1.174 4278190080
0.53647649 -0.040198959 1.174 4278190080
0.53746086 -0.037283376 1.1720001 4278190080
0.54315591 -0.030640135 1.1720001 4278190080
0.5460034 -0.027793029 1.1720001 4278190080
0.58401603 -0.026889803 1.174 4278190080
0.58591759 -0.026889803 1.174 4278190080
0.54885095 -0.024945926 1.1720001 4278190080
0.55074924 -0.024945926 1.1720001 4278190080
0.57355732 -0.021185881 1.174 4278190080
0.56403768 -0.018302685 1.1720001 4278190080
0.52977109 -0.14120844 1.176 4278190080
0.52977109 -0.13739935 1.176 4278190080
0.52405661 -0.1316857 1.176 4278190080
0.5278663 -0.13232055 1.176 4278190080
0.53211141 -0.1318718 1.1776667 4278190080
0.53639627 -0.13381745 1.1780001 4278190080
0.51834214 -0.12597206 1.176 4278190080
0.52285081 -0.12793098 1.1765 4278190080
0.52689451 -0.1292188 1.1766667 4278190080
0.51675767 -0.12194697 1.1776 4278190080
0.52024698 -0.12406752 1.176 4278190080
0.5134995 -0.11664738 1.1780001 4278190080
0.50968337 -0.11092402 1.1780001 4278190080
0.51254547 -0.1128318 1.1780001 4278190080
0.50968337 -0.10901623 1.1780001 4278190080
0.51159143 -0.10901623 1.1780001 4278190080
0.50596082 -0.097403854 1.176 4278190080
0.50682127 -0.087076679 1.1780001 4278190080
0.50596082 -0.084072024 1.176 4278190080
0.51795167 -0.072768286 1.1780001 4278190080
0.52208579 -0.06513714 1.1780001 4278190080
0.52405661 -0.056456093 1.176 4278190080
0.52691388 -0.049790181 1.176 4278190080
0.53067207 -0.047013178 1.1780001 4278190080
0.57741952 -0.025073636 1.1780001 4278190080
0.55739099 -0.021221971 1.176 4278190080
0.57741952 -0.02316585 1.1780001 4278190080
0.53737962 -0.13186307 1.1810001 4278190080
0.52437186 -0.12650767 1.1810001 4278190080
0.52813411 -0.1267219 1.1830001 4278190080
0.53222108 -0.12810443 1.1825001 4278190080
0.5377149 -0.12863778 1.1830001 4278190080
0.5224303 -0.1223823 1.1818001 4278190080
0.52669698 -0.1233691 1.1830001 4278190080
0.53100836 -0.12480602 1.1830001 4278190080
0.51767665 -0.11885709 1.1810001 4278190080
0.51098144 -0.1064249 1.1810001 4278190080
0.50811207 -0.095905349 1.1810001 4278190080
0.50811207 -0.092080057 1.1810001 4278190080
0.51184678 -0.081698626 1.1830001 4278190080
0.51376295 -0.077866867 1.1830001 4278190080
0.51567906 -0.077866867 1.1830001 4278190080
0.52334374 -0.072119214 1.1830001 4278190080
0.52525991 -0.072119214 1.1830001 4278190080
0.52341539 -0.068171993 1.1810001 4278190080
0.52717602 -0.062539794 1.1830001 4278190080
0.52628475 -0.059565097 1.1810001 4278190080
0.52909219 -0.052960373 1.1830001 4278190080
0.53100836 -0.052960373 1.1830001 4278190080
0.53867298 -0.043380953 1.1830001 4278190080
0.54092216 -0.042400185 1.1823335 4278190080
0.54350108 -0.037569679 1.1810001 4278190080
0.54541397 -0.037569679 1.1810001 4278190080
0.54796451 -0.032788068 1.1810001 4278190080
0.55115277 -0.030875424 1.1810001 4278190080
0.55402207 -0.028006459 1.1810001 4278190080
0.5568915 -0.025137492 1.1810001 4278190080
0.57699621 -0.025180062 1.1830001 4278190080
0.58370274 -0.028053887 1.1830001 4278190080
0.59232545 -0.029011827 1.1830001 4278190080
0.56263024 -0.021312201 1.1810001 4278190080
0.56645733 -0.021348294 1.1830001 4278190080
0.5725168 -0.021324232 1.1816667 4278190080
0.57699621 -0.023264177 1.1830001 4278190080
0.53382546 -0.12597658 1.1850001 4278190080
0.53764331 -0.12625353 1.1858001 4278190080
0.54243279 -0.12707843 1.1863334 4278190080
0.54722357 -0.12811156 1.187 4278190080
0.52902699 -0.12213834 1.1850001 4278190080
0.53376508 -0.12234446 1.187 4278190080
0.53664905 -0.12234446 1.187 4278190080
0.51847029 -0.11638097 1.1850001 4278190080
0.52102947 -0.11734053 1.1850001 4278190080
0.52607453 -0.11946093 1.187 4278190080
0.51655084 -0.11350229 1.1850001 4278190080
0.51328897 -0.10210121 1.1863334 4278190080
0.51934534 -0.078130141 1.187 4278190080
0.52134937 -0.075119823 1.1850001 4278190080
0.52866143 -0.067520291 1.1863334 4278190080
0.53184247 -0.056022987 1.187 4278190080
0.53382546 -0.05017123 1.1850001 4278190080
0.53670454 -0.047292545 1.1850001 4278190080
0.55010754 -0.037760552 1.187 4278190080
0.55299151 -0.033915829 1.187 4278190080
0.55972075 -0.028148744 1.187 4278190080
0.56165671 -0.025222631 1.1850001 4278190080
0.56548864 -0.025265202 1.187 4278190080
0.5741328 -0.025222631 1.1850001 4278190080
0.57605225 -0.025222631 1.1850001 4278190080
0.56165671 -0.023303507 1.1850001 4278190080
0.56548864 -0.02334284 1.187 4278190080
0.57221341 -0.022343945 1.1850001 4278190080
0.57605225 -0.023303507 1.1850001 4278190080
0.54667914 -0.12554452 1.1900001 4278190080
0.55244583 -0.12728684 1.1908572 4278190080
0.52451295 -0.11687202 1.1900001 4278190080
0.51960224 -0.11127707 1.192 4278190080
0.52249831 -0.11417276 1.192 4278190080
0.51631767 -0.09690582 1.1933334 4278190080
0.51660609 -0.092126787 1.194 4278190080
0.51487541 -0.085072882 1.1900001 4278190080
0.51574075 -0.08811155 1.192 4278190080
0.51776671 -0.082182057 1.1900001 4278190080
0.52240801 -0.081491448 1.194 4278190080
0.52346367 -0.078459255 1.192 4278190080
0.52700287 -0.077495642 1.192 4278190080
0.5307886 -0.077624053 1.194 4278190080
0.53118664 -0.072667882 1.192 4278190080
0.53371376 -0.067918696 1.1933334 4278190080
0.53564662 -0.067918696 1.1933334 4278190080
0.53315198 -0.061517302 1.191 4278190080
0.53504813 -0.06301558 1.192 4278190080
0.53318667 -0.058091801 1.1900001 4278190080
0.53787982 -0.056353368 1.194 4278190080
0.53702182 -0.052338362 1.1906667 4278190080
0.54084033 -0.050467595 1.192 4278190080
0.54277104 -0.047571905 1.192 4278190080
0.54716098 -0.042192236 1.1900001 4278190080
0.55683279 -0.037403129 1.194 4278190080
0.55821693 -0.032129854 1.192 4278190080
0.56205451 -0.031215291 1.194 4278190080
0.56400919 -0.028267313 1.192 4278190080
0.56767446 -0.027698632 1.1924001 4278190080
0.5733853 -0.027041243 1.1925715 4278190080
0.57784629 -0.028283125 1.1926666 4278190080
0.56884539 -0.023401834 1.1900001 4278190080
0.57302123 -0.023414945 1.1906667 4278190080
0.52372062 -0.11174383 1.197 4278190080
0.51984292 -0.10786672 1.197 4278190080
0.52173221 -0.10650049 1.198 4278190080
0.51984292 -0.085573316 1.197 4278190080
0.52218461 -0.087634258 1.1986666 4278190080
0.5275088 -0.085716292 1.199 4278190080
0.52459568 -0.0837745 1.199 4278190080
0.52706885 -0.082735345 1.198 4278190080
0.53139293 -0.081832699 1.199 4278190080
0.53341478 -0.07878837 1.197 4278190080
0.53632307 -0.075880527 1.197 4278190080
0.53632307 -0.0729727 1.197 4278190080
0.54013228 -0.072123729 1.199 4278190080
0.54013228 -0.067269236 1.199 4278190080
0.5392313 -0.062310632 1.197 4278190080
0.5392313 -0.058433518 1.197 4278190080
0.5430454 -0.056589354 1.199 4278190080
0.54213953 -0.053587124 1.197 4278190080
0.54595852 -0.050763968 1.199 4278190080
0.54887164 -0.047851272 1.199 4278190080
0.55241537 -0.043312769 1.197 4278190080
0.56343716 -0.035229601 1.199 4278190080
0.56537926 -0.035229601 1.199 4278190080
0.56343716 -0.033287805 1.199 4278190080
0.56668937 -0.031958416 1.1976666 4278190080
0.57217658 -0.031346008 1.199 4278190080
0.57751906 -0.031319864 1.198 4278190080
0.58350343 -0.031958416 1.1976666 4278190080
0.58722293 -0.032290764 1.198 4278190080
0.57219154 -0.028385885 1.197 4278190080
0.52644336 -0.10822718 1.2010001 4278190080
0.53068364 -0.10849752 1.2040001 4278190080
0.52255273 -0.10239207 1.2010001 4278190080
0.52385807 -0.097773105 1.2040001 4278190080
0.5232054 -0.092783853 1.2025001 4278190080
0.52678329 -0.091923423 1.2040001 4278190080
0.52678329 -0.088998586 1.2040001 4278190080
0.53227925 -0.085859276 1.2010001 4278190080
0.53653419 -0.086073741 1.2040001 4278190080
0.53227925 -0.083914235 1.2010001 4278190080
0.53728926 -0.081663072 1.2022002 4278190080
0.54128414 -0.081457362 1.2030001 4278190080
0.53811526 -0.078079134 1.2010001 4278190080
0.54213381 -0.076845832 1.2020001 4278190080
0.54628503 -0.076324277 1.2040001 4278190080
0.54433489 -0.072424494 1.2040001 4278190080
0.54628503 -0.072424494 1.2040001 4278190080
0.54407907 -0.067114182 1.2020001 4278190080
0.54628503 -0.068524703 1.2040001 4278190080
0.54395115 -0.062518843 1.2010001 4278190080
0.54395115 -0.058628783 1.2010001 4278190080
0.54823524 -0.053900503 1.2040001 4278190080
0.55116045 -0.050975662 1.2040001 4278190080
0.55408573 -0.048050821 1.2040001 4278190080
0.5562225 -0.047038395 1.2030001 4278190080
0.55756843 -0.042095985 1.2010001 4278190080
0.56048638 -0.041123468 1.2010001 4278190080
0.56243169 -0.038205914 1.2010001 4278190080
0.56706303 -0.037698753 1.2034 4278190080
0.57190025 -0.035332438 1.2025001 4278190080
0.57738006 -0.035310403 1.2017502 4278190080
0.58261037 -0.036307387 1.2025001 4278190080
0.56826764 -0.03334333 1.2010001 4278190080
0.57190025 -0.033384975 1.2025001 4278190080
0.57738006 -0.033364154 1.2017502 4278190080
0.58285749 -0.03334333 1.2010001 4278190080
0.52863508 -0.10574805 1.2060001 4278190080
0.5289709 -0.10209513 1.2090001 4278190080
0.52375156 -0.09793552 1.2060001 4278190080
0.52788228 -0.097445272 1.2080001 4278190080
0.52929133 -0.092193075 1.2075001 4278190080
0.5327493 -0.091432296 1.2078001 4278190080
0.52961177 -0.088169858 1.2060001 4278190080
0.54757452 -0.086431198 1.2090001 4278190080
0.53937888 -0.084263593 1.2060001 4278190080
0.54230893 -0.084263593 1.2060001 4278190080
0.54666871 -0.082380332 1.2070001 4278190080
0.55149102 -0.081536219 1.2090001 4278190080
0.54621577 -0.078404196 1.2060001 4278190080
0.55149102 -0.077620231 1.2090001 4278190080
0.54914594 -0.071568236 1.2060001 4278190080
0.55129522 -0.073125742 1.2075001 4278190080
0.54914594 -0.067661971 1.2060001 4278190080
0.55109936 -0.067661971 1.2060001 4278190080
0.54914594 -0.062779136 1.2060001 4278190080
0.55109936 -0.062779136 1.2060001 4278190080
0.54914594 -0.057896301 1.2060001 4278190080
0.55344933 -0.055103339 1.2090001 4278190080
0.55344933 -0.053145345 1.2090001 4278190080
0.55598283 -0.051060338 1.2060001 4278190080
0.56177199 -0.046781875 1.2090001 4278190080
0.56324071 -0.043355387 1.2090001 4278190080
0.56715727 -0.041397396 1.2090001 4278190080
0.5720529 -0.041397396 1.2090001 4278190080
0.57792777 -0.041397396 1.2090001 4278190080
0.5828234 -0.041397396 1.2090001 4278190080
0.57258683 -0.038364977 1.2060002 4278190080
0.57747042 -0.038364977 1.2060001 4278190080
0.58105165 -0.038690496 1.2060001 4278190080
0.53308153 -0.10231922 1.2116667 4278190080
0.53759766 -0.10341513 1.2130001 4278190080
0.53322822 -0.09744215 1.2120001 4278190080
0.53671134 -0.096380323 1.2110001 4278190080
0.53278828 -0.094419092 1.2110001 4278190080
0.54848039 -0.088535406 1.2110001 4278190080
0.55240339 -0.08755479 1.2110001 4278190080
0.55724525 -0.087699391 1.2130001 4278190080
0.55240339 -0.084612943 1.2110001 4278190080
0.55693948 -0.08274325 1.2123333 4278190080
0.56019235 -0.082788207 1.2130001 4278190080
0.55678666 -0.077812843 1.212 4278190080
0.56019235 -0.077877045 1.2130001 4278190080
0.5567866 -0.072905719 1.2120001 4278190080
0.56019235 -0.072965868 1.2130001 4278190080
0.5567866 -0.067017168 1.212 4278190080
0.56097829 -0.066679567 1.2130001 4278190080
0.55678666 -0.062110044 1.2120001 4278190080
0.56019235 -0.062161289 1.2130001 4278190080
