# .PCD v0.7 - Point Cloud Data file format
VERSION 0.7
FIELDS x y z
SIZE 4 4 4
TYPE F F F
COUNT 1 1 1
WIDTH 1487
HEIGHT 1
VIEWPOINT 0 0 0 1 0 0 0
POINTS 1487
DATA ascii
0.6968919 2.1094847 0.33972216
0.25712863 1.5439184 0.031886451
0.20728181 0.34018248 0.0086761639
-0.1233252 0.77333033 0.21843615
0.47324911 1.6179808 0.024242824
1.8032544 1.9924325 0.12791473
-0.37762994 0.76774567 0.25352058
1.0875143 1.9017266 0.021807322
0.93323123 1.9698592 0.036519054
0.46393177 1.2937715 0.28984493
1.0062358 1.3573209 0.28927192
0.026060026 0.97749406 0.24422078
0.070098735 1.2040209 0.29120827
-0.0014256056 1.349165 0.10822385
1.2838889 1.9173425 0.012947647
1.4612349 1.9457039 0.079832226
-0.18240851 0.43209907 0.48478365
1.1020882 1.2987958 0.27265117
0.71076041 1.8751649 0.13915452
1.2798538 1.6159458 0.43254718
-0.0056847408 1.1182595 0.056674495
1.7614398 1.8056885 0.39305723
0.46390718 0.93286246 0.29395923
1.4747759 2.3929777 0.27146509
-0.013821301 0.557244 0.49542478
0.18039457 0.47289258 0.16671042
0.47747892 0.85320711 0.38397166
0.012774105 1.188797 0.4535183
1.4456543 2.0694387 0.36519745
0.13919011 0.31402749 0.48402393
1.7889032 2.3345988 0.38139823
0.020617837 0.34114268 0.39704251
1.4554235 2.2415383 0.062843248
0.64374775 1.3049002 0.38747656
-0.41641417 0.42587909 0.089378655
1.5766139 2.6366696 0.19279233
0.64791179 0.73731589 0.3256323
-0.044616614 0.44531116 0.24141917
-0.12056376 0.12684812 0.46196026
1.3533016 1.751786 0.023774592
1.3053772 1.6641488 0.21670714
0.74189919 1.2212576 0.33002979
0.39603412 0.69349951 0.10796331
0.33788082 1.2848955 0.34171596
-0.14109313 0.80907655 0.1395116
0.24300125 1.1833853 0.014297869
0.83007848 2.2322049 0.045906991
0.73062336 0.85210115 0.21912262
1.7538308 1.8774034 0.30659592
1.0749271 2.2335289 0.44748142
1.38798 2.1222103 0.074326329
-0.14112268 1.2474931 0.24380511
1.784593 2.1221731 0.348975
-0.14914061 0.72936499 0.18379527
1.1893069 2.2904737 0.019730976
0.12925982 0.29167515 0.35220692
-0.32046005 0.86271644 0.3479335
0.31762618 0.61416394 0.39088237
1.3491858 1.4419214 0.43457189
-0.022767512 1.1727867 0.34419948
-0.12350982 0.82789421 0.10378906
0.0074350154 1.3276292 0.094738901
1.0977917 2.3060277 0.21409151
0.36034283 1.761987 0.024690153
1.2672635 2.4146209 0.41401139
1.2808191 2.5684881 0.47143388
1.2705169 1.3247244 0.38974994
0.47005489 0.83485925 0.49459186
-0.45807651 0.83709693 0.02737885
1.9010928 2.1653924 0.4500711
1.1226897 1.6217841 0.28644323
1.3405187 2.2846344 0.25320238
-0.23905499 0.42545369 0.18037832
0.31553677 1.6874887 0.17593436
0.51374757 1.6987808 0.08158645
0.21448438 1.2684064 0.036846206
0.36785516 0.87264401 0.056011494
-0.31738195 0.62237829 0.1849893
-0.40349674 0.66260368 0.14290226
-0.25797883 0.749403 0.23634626
-0.22011469 0.28787819 0.41280279
1.0980756 1.4002393 0.24659812
0.019935602 0.38423219 0.4815374
0.45137843 1.4833502 0.46659568
1.5361568 1.8914243 0.38556817
1.6351503 2.4847147 0.25818586
-0.53659469 0.72646952 0.43665567
-0.34979078 1.014939 0.26891109
1.0989747 1.1358597 0.14583449
1.6233535 1.8240467 0.00199776
0.49347156 0.71675253 0.18160036
-0.29286075 0.76319188 0.28843135
0.68600518 1.8767804 0.41722965
0.99232709 1.4137983 0.28208676
0.98644781 1.1362325 0.40769282
0.5214172 0.63027668 0.20805924
1.5851612 1.7573123 0.15461989
1.2055559 1.5994232 0.1371247
-0.14734365 0.99146831 0.15016556
0.60391974 1.4776516 0.22112131
0.41069153 1.6878314 0.30006304
1.8098749 1.8295782 0.17343405
0.48513418 1.3590994 0.094436683
0.44005519 0.70184863 0.24344926
1.2830678 2.2524214 0.29640615
0.69949263 2.0527442 0.33489379
-0.38907924 0.66411656 0.39575839
0.5065276 1.0805029 0.035011467
0.94761097 1.8029611 0.43764228
1.9448878 2.0798814 0.24655312
0.41195178 1.2464532 0.19809024
1.7855428 2.4189816 0.20505641
0.092668571 1.3408519 0.014049778
1.010119 1.2247233 0.10660774
-0.66758186 0.72551888 0.44932595
0.83836359 1.734663 0.42777261
0.09203773 1.0800163 0.30013356
0.092379771 0.19515492 0.0030644543
-0.21750784 0.80212468 0.3054764
-0.44575727 0.5012514 0.35320386
1.030985 1.1165818 0.14824465
1.8777635 1.9506547 0.37219906
0.3875038 0.93823522 0.3134985
0.07463824 1.3703171 0.38937259
0.51728034 1.8322716 0.38190809
0.58055764 1.3390108 0.19879781
0.078780442 1.2279183 0.048100974
1.3042169 2.5491996 0.084437475
1.9268888 1.9525304 0.44493201
1.0923461 1.1364856 0.27975014
0.11161505 0.87161016 0.31001315
0.80960089 1.4315219 0.33578411
0.046430953 1.1102649 0.03049708
1.8427733 1.9740456 0.48858872
0.98182911 1.8962853 0.45350835
0.86798626 1.008085 0.22166203
1.4936308 2.0692959 0.12794362
1.7625767 2.2085004 0.068111502
0.060031127 0.3848809 0.07717713
1.5762459 2.6440394 0.09278281
0.47793394 1.8734694 0.36148167
0.0054743309 0.73383707 0.081363931
1.237303 2.3512311 0.45748603
1.4376614 2.4096489 0.0038977824
1.6166686 2.1338139 0.32720688
1.1067426 2.2492452 0.37673926
0.039140321 0.95507145 0.080267586
0.62721974 1.4526297 0.23792538
0.84204036 1.8157543 0.35277712
1.1732011 2.1394632 0.23029919
1.8820515 2.217901 0.22369546
1.1711494 1.7534361 0.48121059
1.625365 1.9896163 0.3750436
1.510882 1.7433565 0.21869308
1.6094452 1.6778671 0.40153158
0.31701475 1.5040991 0.30546719
0.33546856 0.43974328 0.12929775
0.32937354 1.1269314 0.42112422
1.6029465 1.8722223 0.26538405
0.42622197 1.7997192 0.1070093
1.42708 2.7530146 0.22575007
0.47449505 1.3610778 0.43161955
0.49938819 1.1767511 0.060401805
0.13397683 0.48187238 0.14259395
1.2210344 1.2504871 0.1667847
0.49974927 1.13624 0.086482398
1.6665349 2.5614295 0.12334908
-0.14893909 1.2313905 0.40532836
-0.35566872 0.76883692 0.00053173932
1.106377 1.5586495 0.48613635
1.5708034 2.0022273 0.454925
0.10133075 1.1446121 0.26837933
0.23896727 0.42674819 0.0078633111
0.39258888 0.78565288 0.13086297
0.58564353 1.8025481 0.14127608
1.727693 2.0757136 0.36630949
-0.024267565 0.31886101 0.18270254
0.31864968 1.0225954 0.17072275
-0.15186943 0.68979901 0.068295524
0.11332224 0.42911929 0.22819798
0.16610542 0.25869912 0.38072932
-0.23278877 0.27511922 0.24958499
0.79489577 1.5247089 0.31597558
0.63188332 1.7544438 0.45494467
1.4961627 2.0005734 0.38518539
0.047431633 0.40543097 0.0082292892
1.5524523 2.0086496 0.12954356
-0.017267613 0.88601124 0.37842596
0.61739272 1.6999815 0.17600067
0.8167392 2.0801418 0.28765181
-0.40721986 0.9977842 0.32038862
1.9081296 1.9130301 0.4999612
0.45910785 1.23721 0.25798911
-0.012256064 0.14707491 0.15487416
1.3351214 2.6600311 0.33321026
1.4796339 1.5412843 0.45978215
0.92103088 2.1697152 0.1210722
2.0329537 2.1570058 0.44042951
1.1309298 2.0274398 0.3231824
-0.019389607 0.42853376 0.26986265
1.1025863 1.7473644 0.2666066
0.41080648 0.91509098 0.26833925
0.12792224 1.197646 0.04343991
1.2000076 2.314671 0.099771917
-0.22298935 0.80917799 0.068198226
1.3943225 2.019249 0.0899949
1.415675 1.6566367 0.031471457
1.9381211 2.1615224 0.075330429
1.1589899 2.4351811 0.39229456
0.3406257 1.7531983 0.050659399
-0.40364933 0.54469317 0.2786229
0.50648379 1.8967922 0.4569144
0.0098091681 0.42776003 0.33511886
0.31543612 0.49073294 0.2292119
0.64103442 1.0117275 0.09413816
1.0685532 1.1628898 0.31508306
0.93831724 2.0567577 0.40027586
1.0956722 2.1664469 0.47926015
1.5233505 2.3779688 0.43046188
1.4245311 1.5628772 0.42988169
1.6159534 1.8013141 0.26517141
0.27618396 1.2626365 0.25671962
0.020459007 1.152768 0.40448758
1.3078865 2.7089186 0.46646434
0.59067631 1.1284153 0.097524136
0.61816353 1.899717 0.13087717
0.041555002 0.90725321 0.026305629
-0.21811841 0.3207393 0.40488169
1.8720971 2.2971809 0.20703489
1.7862773 1.7929503 0.25594759
0.9192459 2.0650082 0.32148248
0.37358919 0.61807799 0.17024612
1.2672205 1.9027849 0.070577815
0.8996349 1.4599208 0.06591744
0.47083992 1.6041564 0.25603691
1.1720598 1.7304562 0.20913447
1.5691899 2.4438558 0.015205
1.6636918 2.5725646 0.20571996
1.272366 2.1567848 0.35600981
0.13998923 0.8032701 0.35836908
1.435614 1.6794326 0.26345718
0.51295036 1.0873247 0.34989703
1.4140161 1.6308453 0.074603006
1.3201932 2.3235409 0.27269399
1.9611312 2.241931 0.17338185
0.44233084 1.6906359 0.37080479
1.367879 2.5396523 0.18004584
1.4334525 2.6030977 0.0013808836
0.32050973 1.2189916 0.31407008
-0.44759884 0.76530284 0.048575267
1.2607647 2.0978017 0.13477817
-0.0095139593 1.3609481 0.33785015
-0.44671705 0.52448523 0.41451091
-0.030385558 0.74118119 0.26924792
1.1331534 1.8915273 0.36852562
0.099042319 0.15419158 0.3098681
1.0209786 2.3786383 0.22415254
-0.30212358 0.98683941 0.13768457
0.15425825 0.54217476 0.4553459
1.433794 1.9276118 0.3841714
1.7872272 1.9863536 0.18010867
0.012483108 0.66208762 0.16464017
1.4328986 2.1084259 0.0080120396
0.95173311 1.8641922 0.2808021
0.17572831 0.68220079 0.048927758
1.6970444 2.2879281 0.068425968
1.030887 1.3407629 0.048431184
-0.25355396 0.28456047 0.0041484078
0.21452004 0.98477882 0.14129761
0.17194119 0.64845502 0.31588858
1.8800191 2.2001796 0.38629043
0.41040668 0.95542413 0.11596029
1.2258018 1.5370471 0.35479522
0.79047316 2.0403602 0.17739823
0.42461374 0.54626369 0.35646331
0.67514133 0.71090192 0.065372258
0.57017314 1.3964837 0.17492992
0.77048147 1.6071275 0.3651821
0.58819854 1.8246108 0.1375097
1.7580476 1.8537117 0.3059828
1.0040027 1.0455196 0.41917664
0.29393533 0.79072911 0.11186939
1.0325451 1.036075 0.22191125
-0.055312097 0.89182889 0.16381308
0.53551197 1.8062788 0.20682283
0.40263692 0.72120458 0.21946611
0.3522118 1.3263317 0.011611
1.4052151 1.7576579 0.30741003
0.43109637 1.5878088 0.24454781
1.1196475 2.0660663 0.2783702
0.66202199 0.87740123 0.29304862
0.13834007 0.71527416 0.46869177
0.2681917 1.5346658 0.46993977
1.7773687 1.9084682 0.30480468
-0.03925005 0.87244642 0.25408858
0.65091801 1.9372283 0.36671928
-0.11193699 0.31967425 0.21112268
0.11728556 0.18897428 0.33572999
1.0850317 1.8296889 0.24468963
0.17739438 0.56974256 0.079299182
1.1018486 2.0073378 0.15544726
0.081559293 1.2715867 0.35942426
0.35536018 0.73212641 0.30719048
0.32062599 0.51179099 0.35354114
1.4749366 1.9438337 0.17587452
0.0002651939 1.3318777 0.13065389
-0.5998199 0.80103838 0.28325149
0.95196122 1.0406926 0.3085973
-0.23076414 0.82954073 0.071873337
0.68284321 1.9921937 0.21058936
1.2081902 2.1397226 0.030728161
-0.47914764 0.90343344 0.45146635
1.5716194 1.9024824 0.084673338
0.61486161 1.223197 0.15226038
0.13080107 0.46451303 0.31804055
0.65494967 1.4327092 0.28883666
1.1757307 2.0205631 0.28411487
0.6311425 0.72597927 0.31548613
1.8406138 2.1350427 0.19036052
-0.42161328 0.76449466 0.15328583
0.62096304 1.5088284 0.48263228
0.68061727 1.7099112 0.47144851
0.60279632 1.3759106 0.088426262
0.65569174 2.0414922 0.3035053
1.9095656 2.0795906 0.42149028
0.78963381 1.6555451 0.19646983
0.068134815 0.58526379 0.4951632
1.0473452 2.0168481 0.028693067
0.30901644 1.1895247 0.13278943
1.0595008 2.0543029 0.052141931
-0.059341334 0.23117761 0.36604974
-0.53144777 0.55591404 0.2299601
1.8460611 2.1787784 0.0032972884
-0.34962901 0.88214952 0.49325177
0.98028231 2.1275661 0.053364675
0.94677079 1.4949006 0.35951054
1.6714219 2.4373512 0.042343255
1.847309 2.2204225 0.38511431
-0.40203381 0.47059333 0.19642097
0.34948355 0.84583169 0.048136596
0.54206365 1.0956906 0.15085055
-0.030316886 0.53146541 0.035290997
0.98162138 1.4708034 0.15292428
0.90685719 1.5735459 0.088423759
1.067359 1.3557836 0.49404979
0.88682085 1.9891359 0.18784291
0.31308582 1.3707783 0.4586398
0.52188456 1.5212741 0.090555333
0.023039253 1.0452819 0.39907563
1.3642704 1.3707379 0.074561186
1.2955377 1.8479233 0.27029786
-0.26930276 0.45013234 0.46891791
0.17879361 0.30149004 0.14186981
0.41419587 1.3636934 0.37757987
1.0925958 1.4355938 0.47955337
0.58802503 1.8896754 0.36928061
1.8114377 2.2601626 0.24323139
1.295435 2.4252126 0.09656892
0.087361552 0.15903273 0.45798627
1.3246613 2.308002 0.46027288
-0.29712608 0.31982127 0.15557066
0.81951231 1.4967362 0.40992936
0.60759485 1.4449133 0.45330912
1.6202894 1.636024 0.28900716
0.67953986 1.5380044 0.41027531
0.88694894 1.1571 0.37047818
0.36086023 0.57399786 0.029126361
1.4798025 1.5189424 0.42856309
1.848444 1.9697154 0.45390269
1.0647509 2.39691 0.30156609
0.89242047 2.2321446 0.019689918
-0.24780408 0.44978935 0.25912473
1.1492943 2.5310571 0.055161484
1.1155895 2.1685765 0.060724508
0.55793881 0.93589371 0.36423755
-0.16340567 0.89589888 0.45975035
1.2525904 2.6235144 0.035105899
1.5834792 2.5397711 0.048943941
1.3511449 2.1659431 0.09181983
1.2857338 1.8402054 0.062809184
0.63019598 0.81197566 0.0364732
0.68006903 0.92917717 0.28310972
1.8731569 1.9348353 0.27163664
-0.56149405 0.59490633 0.14392377
0.15427291 0.3944039 0.277551
1.5775198 2.061815 0.15207171
1.4678442 1.8299611 0.13676651
1.6366844 1.9590044 0.47486678
1.9652615 2.0457304 0.26294142
-0.28749022 0.83495855 0.45897672
0.44573143 0.63469052 0.023245547
0.33226642 1.0576409 0.11131857
1.6058407 2.1863322 0.13312517
0.63140821 1.2230372 0.041974444
1.150579 1.9251003 0.12687357
0.30735871 0.88077813 0.29809785
1.1100169 1.3684912 0.42612547
1.7980933 1.840917 0.040082764
1.0229634 2.4027843 0.068532854
0.63307106 0.78116792 0.4653784
0.27895367 0.78719115 0.032185536
0.14592496 1.1174649 0.28864413
0.69328761 1.5146717 0.49387893
1.6561224 1.6814413 0.20305139
1.3215917 2.3721371 0.47688603
0.24763431 0.28001171 0.17962041
1.0992717 1.9578185 0.27100489
0.88645363 1.5437903 0.28614533
1.1926591 1.5776982 0.27398571
1.247713 2.1041651 0.32634586
0.92313522 2.134969 0.0060349572
1.5562286 1.7749788 0.3495262
0.29152846 1.2462649 0.13992929
0.41640505 1.0694492 0.1488809
1.3693644 1.839438 0.020304764
1.1833591 1.8293147 0.031751901
0.021695428 0.27246743 0.33529404
0.76643109 1.8272843 0.067697637
0.10450311 0.67459536 0.2038295
1.4153866 1.6885579 0.0066310163
0.16895039 1.4614898 0.43507892
0.34646007 1.3351884 0.012418738
0.1588617 0.24597418 0.34996906
0.50488907 1.0872864 0.080855034
1.3088436 1.5466281 0.24705112
0.8928771 2.1348863 0.47543088
0.97856188 2.3186252 0.064092182
0.55459446 1.3450161 0.43916047
0.71196145 1.7620826 0.1407185
1.7665194 2.4370751 0.23729914
-0.59840786 0.61562783 0.19428082
1.6743077 2.0346794 0.043849044
1.6595232 2.1548402 0.074647963
0.75763333 1.7836754 0.28055647
1.331867 1.8955194 0.36462599
0.46117538 0.61986864 0.30374253
-0.19259372 1.0651619 0.27752647
0.46983138 0.94657695 0.056982726
-0.20062958 1.1007973 0.4282566
0.40289611 1.6913077 0.16533384
1.4068011 2.7009528 0.094560288
0.19868675 1.3149537 0.2219709
0.45610201 1.4296099 0.3970919
1.0563618 1.4627591 0.25985253
0.2945509 0.36253005 0.45913374
1.6613539 2.0896811 0.015240269
0.68327594 1.4024591 0.45992401
-0.49666736 0.69465202 0.12847903
0.3021687 0.3793304 0.08860293
-0.35124668 0.42398295 0.044125207
0.37268654 1.1029539 0.001676874
0.52159846 1.7564126 0.39633685
1.8561627 2.3053339 0.24052387
0.99970704 2.2885852 0.38420701
0.5784409 0.67213261 0.40824127
-0.22011246 1.1239243 0.059677806
0.20403078 0.82909894 0.31394747
0.0010053841 0.69206846 0.23514247
0.43251258 1.350742 0.26242325
0.79630029 1.7387751 0.036508325
1.4446744 1.4648159 0.29469681
1.0721202 1.8515987 0.23126955
0.64583874 1.3982692 0.39007556
1.8253533 2.2596676 0.34576285
1.1256562 1.9768285 0.37888786
0.58572167 1.7381644 0.35407659
1.3738316 1.4564375 0.075071558
0.46896535 0.78259575 0.31939924
1.1693813 2.07743 0.14404237
0.44602275 0.78488296 0.47725755
0.11599942 1.4246897 0.48437864
1.5861124 2.455162 0.2599659
0.81240779 0.94861329 0.025990229
0.37230799 0.45597348 0.17954354
1.3221748 2.4400017 0.48047835
1.1281319 1.606374 0.38792843
0.74442649 0.75187814 0.41713399
0.85433459 1.2789733 0.028019078
0.25408208 0.34677762 0.34906274
0.66005117 1.1630486 0.46886793
0.30678165 1.3233421 0.4315598
0.27406684 1.2235053 0.23881526
1.790612 1.9128438 0.28697115
1.7628323 2.1611578 0.31655139
0.48332801 0.72149897 0.21176292
-0.055246264 1.0944266 0.38084707
-0.073003046 0.16122453 0.38348165
1.3411952 2.2865255 0.033614103
1.3599268 2.5055437 0.066386931
1.1228111 1.4619143 0.24422339
0.71904159 1.6015193 0.10363179
0.17907909 1.5607475 0.43930897
1.2821506 2.4840908 0.48252445
0.43145421 1.5271776 0.12335386
0.15944992 0.24256869 0.20756002
0.88468719 1.3141994 0.11403078
0.36446059 0.82337999 0.19684273
-0.027398264 0.22654779 0.031067437
0.178076 0.30629864 0.43610412
0.028944321 1.0187421 0.055995204
1.385443 1.7345475 0.36799821
1.5351443 2.464191 0.35649177
1.3570539 2.127301 0.28144178
1.6635796 1.6724902 0.16883849
-0.0013977044 0.14151914 0.19822541
0.51272374 1.3886029 0.35008091
0.79854196 2.0703678 0.012333429
-0.52083701 0.81737208 0.10211692
0.23734866 0.32280239 0.14745048
-0.20835295 0.22632961 0.49739683
0.21632294 0.27678877 0.12082393
1.1110512 2.5046289 0.44929156
0.62857836 1.769394 0.22161497
-0.14759047 0.69103491 0.22476536
0.54537696 1.4307096 0.2752941
1.7765952 1.8814898 0.084964104
0.66239077 1.7235886 0.034622468
0.66529453 1.8253374 0.0077508325
1.0051814 2.3519413 0.037963297
-0.49355564 0.85919648 0.19164678
0.12032157 0.22323067 0.21302469
0.030320724 1.3384565 0.20572878
0.1226277 0.81587404 0.10906804
0.97228628 1.8466808 0.4055669
0.18232365 0.30120009 0.21857923
0.74061674 2.0788548 0.25566503
1.4105325 2.1298835 0.13085513
1.8494246 1.9847727 0.040992212
1.3227881 2.577177 0.01714373
1.4229126 2.7991819 0.49541381
0.76452881 0.84110194 0.031797681
1.4401865 1.9730188 0.49429351
0.035282522 0.88094866 0.23939312
0.73529792 1.1064062 0.04853826
0.25406492 0.78634775 0.090567432
1.418613 1.476506 0.063706048
-0.20808183 1.0299499 0.31803504
0.41516337 1.5170474 0.36588779
0.64619112 1.63385 0.30938128
0.72235018 1.7031603 0.29596594
1.1423943 1.2442012 0.32303864
0.70843291 1.9479748 0.011423263
1.238624 1.3693627 0.31041139
-0.17398809 0.57065207 0.44161797
-0.14145981 0.94998455 0.12980838
0.46737224 1.1096426 0.15027669
0.60067606 1.5169026 0.087987028
0.21373574 0.35981891 0.47756183
1.3860593 2.2921562 0.32675198
0.88018763 1.1805744 0.17352074
-0.38322148 0.71269715 0.2095149
1.2516875 1.8188618 0.14775914
1.5725946 1.5948843 0.19398227
0.70212764 0.85663861 0.45725232
0.31967953 0.74369878 0.34313616
0.60757399 1.5572649 0.070213065
1.599321 1.8406578 0.39414805
1.877026 2.3095477 0.44579625
1.8758998 2.1202798 0.26614988
0.79741031 1.728711 0.37235266
1.4786838 2.5198097 0.2598184
0.44160849 1.0920373 0.46034482
1.247691 1.5397327 0.46822539
-0.31042659 0.50120372 0.022853276
1.4523009 2.6183908 0.1727667
1.1330843 1.6065736 0.0085331295
1.5647501 1.7706853 0.093858592
1.1250029 1.3122491 0.24677812
0.93611264 1.0412052 0.3331795
1.6442707 2.5914037 0.16244403
1.1434001 2.0091507 0.030537639
-0.13121176 1.2457541 0.26049897
-0.056918293 0.83497524 0.36375126
-0.22352269 0.73196322 0.15070592
-0.097906291 0.80026329 0.062980913
0.88557792 1.2827532 0.23038462
1.0729818 1.1677554 0.30319372
1.0649815 1.9721723 0.36939526
0.36820576 0.52028894 0.40655106
1.7829278 1.9326888 0.24141312
-0.17462607 1.0259852 0.047502175
0.47628388 0.63419574 0.034333125
1.4518112 1.8690754 0.34966511
0.78901666 1.375761 0.18748038
1.3113482 2.1322117 0.0050312704
1.9242719 2.0536988 0.14545394
0.40693453 1.2832737 0.17896144
-0.2271293 0.24738085 0.49970183
1.1919996 1.9626746 0.053471372
0.88336664 1.478367 0.10641991
-0.35561776 0.52316898 0.03090011
-0.33916304 0.90978354 0.086730383
-0.039874244 0.90182102 0.23425555
1.7899396 2.0390139 0.44170099
-0.10989545 1.287032 0.23192
-0.044437893 1.2642663 0.27767929
0.99807632 1.4559696 0.087511972
1.7539701 2.2186141 0.25527665
1.9340329 2.0360212 0.027751422
-0.35404986 0.53518301 0.2381158
0.069526359 1.0146097 0.048813835
0.105521 1.2408111 0.49038315
1.0369358 1.045328 0.32332268
1.392639 2.6773491 0.41138372
1.6562146 1.9190899 0.40527219
0.31554285 0.98502761 0.36796898
1.7917354 1.8650219 0.029858699
-0.62040043 0.77708083 0.1941351
0.50807774 1.8146968 0.23019342
0.5956282 1.962625 0.044584718
0.01096513 0.32512701 0.3787221
-0.0063239909 0.75661528 0.2801078
0.31293795 0.35575157 0.28307486
1.0063486 2.4058249 0.23728843
0.74160427 1.9186352 0.33022889
0.83005321 1.026394 0.066927485
0.36754018 0.3685866 0.092838176
0.46810651 0.52137971 0.0869224
0.90462285 1.7321543 0.048881996
0.040661748 0.30673066 0.032188337
0.17380333 0.55190295 0.14326133
1.6555367 2.2837334 0.41300109
0.61116475 1.462258 0.42813799
-0.17075948 0.40351132 0.42292759
1.0997036 1.1465074 0.33907089
0.070017882 0.73563737 0.40848786
0.23127936 1.1422744 0.40885782
0.460244 1.7010678 0.42769274
1.0966684 1.8022044 0.22026929
1.2461584 2.0674918 0.31433886
1.261771 2.3250065 0.44801727
-0.20118126 0.76093072 0.17011833
1.9125704 2.1516097 0.47102523
1.5688937 1.8855169 0.17406061
0.8675347 1.9328949 0.19060823
0.05049435 1.3844063 0.42594025
0.14042236 0.51797205 0.24802566
1.5148406 2.6128275 0.18672311
1.4320282 2.0820925 0.43616775
0.40006304 0.74046391 0.22655298
1.8430004 1.9647801 0.10246351
1.5291647 1.8375276 0.44262144
0.1593388 0.40821478 0.027134607
-0.53932589 0.86102033 0.13907783
0.43951932 1.3591285 0.015739549
1.0090514 2.4069607 0.48734865
1.2922169 1.4953775 0.12083261
0.24234238 0.40717876 0.0090296194
0.44885468 1.7850647 0.23886205
0.69505638 0.99722838 0.35921192
1.7287159 1.8859346 0.40226758
-0.51900399 0.76044548 0.011290316
1.9713943 2.0258148 0.099281259
2.032901 2.1945529 0.094378397
0.20186327 0.96306443 0.41950932
0.40641195 0.89207023 0.41374493
0.59524453 0.59588742 0.48557302
0.99964035 1.2167903 0.043851491
0.66562992 1.6274196 0.016273055
-0.017225219 0.094445847 0.12310701
0.90434021 2.2208948 0.17869221
0.44945636 1.8464915 0.13104589
0.53826237 1.8534869 0.15028641
0.96200824 2.2721705 0.20743898
1.875374 2.159632 0.47656423
1.3174672 2.0345526 0.14827035
0.75299591 1.8671253 0.14849766
1.0294892 1.4682151 0.22527175
0.83336031 2.0364361 0.065315761
0.88953096 2.1183469 0.10479744
1.5980641 2.4544115 0.070269771
0.55931932 0.76676911 0.064196259
0.71667504 1.7213746 0.029198349
1.5223633 2.1909089 0.49241066
0.31573781 0.91507173 0.092911005
0.36474502 0.66720533 0.34643894
0.55711603 1.7329501 0.24034314
1.4779609 2.0721495 0.39545617
0.54119503 0.67776889 0.3208077
0.31699336 1.4561931 0.25525975
0.79330546 1.8691168 0.058024283
1.5775269 1.6811541 0.13136886
1.4435469 2.3598573 0.48658377
1.6556531 2.3955073 0.22295032
1.4183193 2.5684435 0.43484688
0.22630206 0.30619612 0.041782737
1.3144404 2.1576898 0.45750284
0.32823125 0.94063729 0.16758023
-0.31847128 0.70025605 0.21586636
1.4541762 1.6497521 0.11863431
-0.027905762 1.0551442 0.49899107
0.38226369 1.1373272 0.035628855
1.0128206 1.621472 0.35959354
0.98781377 1.5326384 0.12117155
-0.14496221 0.31456983 0.027801849
1.6111871 2.2482185 0.056048665
1.9168746 2.2970693 0.35418236
1.5250964 2.3282471 0.070700586
0.051127981 0.98154032 0.43087509
1.1567568 1.7075983 2.1607615e-05
1.4888731 2.3821275 0.38293761
1.2313274 2.6311121 0.14989287
1.650546 2.5142145 0.36508361
1.3418832 1.6314889 0.057708215
1.8277025 2.1738443 0.22017732
2.0095284 2.2279251 0.44540194
0.13078515 0.33961618 0.079821028
1.6983365 1.7774018 0.3637777
1.8261822 2.2494705 0.19272813
1.0555176 2.4335907 0.38748002
1.1175493 2.3717422 0.20329313
0.68426245 1.8117218 0.19819175
1.333184 2.4346833 0.0035447127
0.97232705 1.6507368 0.10593581
1.2573446 1.8553897 0.22831537
0.071022063 0.66733807 0.30553022
-0.23901808 0.51409841 0.37936315
0.22745091 0.72493327 0.40731698
1.7986603 2.2404799 0.056971915
0.62060487 0.81124711 0.044194348
-0.43832552 0.91541386 0.48761857
0.71528357 1.4868042 0.38623565
1.6352688 2.2485316 0.27567449
1.9202373 1.9936411 0.015528562
-0.27042454 0.84055746 0.22696945
0.57517546 1.9322776 0.43779901
0.41137019 0.44595212 0.2040659
1.862141 2.2141843 0.37995246
1.5028369 1.7870469 0.036159325
1.5059063 2.2674003 0.10356153
1.6138924 2.5344157 0.082180686
1.9014546 2.1417935 0.35495442
1.4786001 1.5993257 0.071775571
0.58166128 0.59279943 0.097727768
0.55252123 0.75370371 0.49051923
1.0975622 2.1345623 0.47032726
0.69077873 2.0135529 0.48255381
-0.53704411 0.73029172 0.10701992
1.2337505 2.1835008 0.20750327
1.4653839 2.2586894 0.47673202
-0.20084001 0.56102133 0.30218613
0.1810552 0.87645233 0.38715881
1.8811184 2.1882772 0.42984176
-0.13142744 0.5672183 0.43377969
0.065492228 1.1995463 0.0049084267
0.19368805 0.99090338 0.37154335
0.32418206 0.6086278 0.33921465
0.21795623 0.56681776 0.28728554
0.80956817 0.88329995 0.12307294
1.0692512 2.3843408 0.40354881
1.61761 1.6385463 0.17290744
0.60210556 0.97554445 0.41876748
0.15223508 0.46792564 0.027364524
-0.21805298 0.24290118 0.27437308
1.4114786 2.2941122 0.17532176
1.2348714 2.5123689 0.45717993
1.2415144 1.415735 0.05774669
0.42856431 0.86437619 0.18108788
1.3652689 2.3653703 0.20715599
-0.10238898 0.63469595 0.17211035
1.7741376 2.1823945 0.17951247
0.12345981 1.0576 0.31154305
-0.32454076 0.81631964 0.42315653
-0.21258427 0.93655884 0.086128436
1.0409905 2.011117 0.39818656
-0.2539359 0.55105716 0.34985012
1.9499463 2.2264755 0.41144639
-0.14186575 0.56564373 0.06552916
0.71175867 1.2486008 0.41911834
1.5019293 2.216207 0.17971723
0.15849599 0.77740437 0.32405782
0.72325963 1.7358546 0.15432625
-0.15825862 1.0182626 0.057681303
0.10216647 0.10579905 0.46396476
-0.04110612 0.97989565 0.30695626
-0.52258414 0.597458 0.091564298
0.97274071 2.0707099 0.18933216
0.52640992 1.7656385 0.43947452
1.1848068 1.663275 0.12927692
0.92907244 1.2327058 0.3818123
1.5355647 2.1511648 0.10062946
1.0863596 1.107451 0.45863584
1.5977764 1.9055357 0.37459895
1.8078365 2.1849177 0.37588325
1.498487 2.188498 0.23686188
0.66699284 1.3819618 0.13285659
1.2553322 1.5705712 0.021047318
-0.44472784 0.63452727 0.45918077
1.6522311 2.2666333 0.12834479
-0.28091007 1.0540848 0.23569539
1.4316342 2.5813253 0.45334291
0.07872016 0.54546791 0.46079981
0.02644835 0.24675325 0.06960918
1.6573848 1.7943941 0.20292751
0.51630449 1.882309 0.44688326
-0.23448165 0.40029407 0.19966295
0.56530398 0.72783399 0.31111676
0.62296695 0.84876341 0.19269104
0.5037483 0.62161934 0.409915
0.91940665 1.2950026 0.38190693
1.9576578 2.2566934 0.28838414
1.6556772 2.1627753 0.45340437
1.4438313 2.0419967 0.031293914
1.8709683 2.2055132 0.07973405
0.21082763 1.3449103 0.062689543
-0.042163074 1.1471903 0.28711665
1.2965189 1.5027047 0.3445797
0.24986671 0.94662941 0.42441079
0.87982428 1.9517095 0.46608451
0.83566451 1.2314726 0.098877713
0.33935302 0.72573125 0.20460275
1.6335613 1.8785435 0.38388905
0.85490143 2.2618263 0.095372453
1.0153635 2.3669019 0.21365191
1.8014635 2.2573678 0.11461069
-0.23805884 0.58618784 0.035110634
1.2206435 1.5637511 0.10800835
0.36183488 1.1037745 0.35435116
0.27632153 0.54789221 0.23331982
-0.21209262 0.74852377 0.3732591
0.029895939 1.3455404 0.0098644337
1.0197078 2.0918403 0.096478708
0.7147429 1.4115711 0.093901761
1.2627698 1.6728063 0.071742773
0.078532711 0.42729935 0.23292926
0.50676316 0.97157282 0.024344455
0.19165921 1.5846003 0.14565133
1.1127384 1.5800025 0.40796661
0.35743377 1.0994358 0.0039813425
1.2579207 2.1787331 0.34361053
0.49096525 1.8702564 0.30876109
0.72133189 1.7235923 0.18781719
1.4833775 1.7801956 0.43418315
1.3925062 2.6678498 0.079152927
0.19836617 0.2281068 0.20246056
0.94021195 1.4627312 0.3667956
0.74745351 1.8620594 0.35927466
1.6237164 2.221689 0.024477467
0.99044013 2.0740359 0.28681478
1.1416627 1.9565961 0.11237113
0.7917282 0.97952193 0.1000242
-0.42711714 0.57565135 0.45437676
0.53290159 1.2093142 0.059317801
0.28404516 0.89969623 0.010219821
0.54878378 1.3065925 0.020734722
1.7143674 1.8589437 0.20547318
0.71431017 1.728724 0.099545859
0.18346904 1.0654711 0.3109611
0.48367894 0.9729594 0.19407003
1.8912613 1.9990811 0.48219252
-0.048517022 0.64971954 0.048587624
0.35109401 1.098842 0.4031198
-0.13283837 1.1956482 0.14226779
0.62864232 0.93749577 0.35993332
0.36277196 1.2900842 0.12785916
0.56229687 1.2664993 0.17897458
1.7339802 1.8383137 0.037624042
-0.17315954 0.34748739 0.34945884
0.90336359 1.9095566 0.022445627
-0.33587104 0.55288929 0.060565699
-0.51162225 0.57753891 0.30742961
0.15996836 0.31822795 0.071798429
1.693126 2.2056556 0.041489366
-0.085626304 0.94894928 0.15068556
1.8730721 2.0443861 0.47853994
-0.010587006 0.77032572 0.22751309
0.86046231 1.4179262 0.26440057
0.99103296 1.6066061 0.44847703
0.59062773 0.72962731 0.30421999
0.64968675 0.86102575 0.11844423
0.89565915 1.1289704 0.0035208422
-0.0010472254 0.39166278 0.059474058
0.3608776 0.63896781 0.24068062
0.39301491 0.95887947 0.10645831
1.0865166 1.543987 0.16702698
0.86884624 1.5795629 0.44312131
0.040157508 0.096123457 0.14021455
0.72897422 1.6508199 0.35785249
0.29033834 1.652269 0.40699628
-0.084964491 0.36632347 0.48171589
0.080113538 1.206278 0.064203866
0.029948613 1.2863183 0.20304781
0.82274157 0.99817944 0.30136755
1.6185472 2.2446165 0.0014308784
0.21758071 0.30627108 0.16317111
0.51814795 1.4229747 0.4144474
0.25411868 1.2043724 0.43423435
1.1594731 1.4887779 0.26015601
0.23262437 1.209465 0.24167122
-0.20885019 0.86177677 0.4012256
0.2062851 0.29149571 0.29938486
0.25930122 0.78326744 0.24357863
0.81727332 1.9482132 0.30560529
0.037793361 1.042241 0.026954226
-0.043444566 1.1356202 0.058311004
1.0324181 1.4443103 0.37821558
0.4263674 1.3244232 0.21418099
0.41307902 0.77967161 0.33060786
1.2764792 2.1237683 0.17597318
0.071661942 1.1365932 0.054496981
-0.4303658 0.80049241 0.084623478
1.3731619 1.5373294 0.26987353
-0.17565623 0.91034013 0.16972116
1.6480182 1.6798124 0.024846995
1.5803461 1.9761989 0.44170937
1.4149506 2.6363795 0.087335236
1.3135713 1.7043836 0.40484592
-0.097847722 0.69054806 0.034455977
1.4452014 1.9527996 0.3340179
-0.13090378 0.77944601 0.21052796
0.038619563 1.0723449 0.14570203
0.61967146 1.209347 0.20374402
1.6422005 2.4767706 0.087701723
0.39341432 0.9230479 0.098942675
0.61318052 0.91411549 0.23889777
0.39775938 0.63492417 0.17073812
0.26529887 1.5084487 0.30891111
0.46991768 0.49642074 0.087651126
0.049768519 1.2089386 0.26711416
1.358796 2.7341468 0.088971421
0.6526162 0.98407495 0.45444852
0.96594119 1.9070728 0.16293032
-0.27035487 0.62955356 0.45799544
-0.11767836 1.2210507 0.14524919
0.75465733 1.1882715 0.25164577
1.5961008 2.3739429 0.33549622
-0.096463643 1.2726276 0.27501604
1.7601856 2.0371761 0.28438628
-0.19904701 0.49751258 0.19421479
0.95917201 1.6058323 0.18047473
1.0638639 2.256088 0.29766309
1.0988765 1.8345582 0.13040334
-0.39105552 0.46435913 0.448569
1.3681592 2.5913646 0.42188123
0.24636431 0.70299917 0.075187027
1.3594397 1.725209 0.35019574
0.46548194 1.2233058 0.33424261
1.7064893 2.315887 0.43217355
0.74197358 1.4508597 0.17844455
1.8455632 1.9952371 0.4070735
-0.063393012 1.1929315 0.32858834
1.4176855 2.2376082 0.088691138
-0.16259754 0.6817596 0.39112589
-0.33361459 0.41637027 0.32359433
1.2980487 2.3644881 0.48503914
-0.31128144 0.36916059 0.11435809
0.89300865 2.13638 0.38228929
0.22647032 1.3964201 0.097743869
0.28034166 0.76702231 0.34837294
1.1043912 1.4571251 0.40129068
0.52188098 1.2511277 0.34546849
-0.10746589 0.42599848 0.13535492
0.18229173 0.8888101 0.43388024
-0.29341459 0.44068903 0.19903994
1.1761639 1.7168995 0.076083183
1.1030438 1.6630725 0.31665578
1.7904328 1.9460441 0.2562539
1.0205468 1.7171216 0.16989362
1.2606783 2.3063743 0.34196121
0.89756656 1.3828878 0.46667147
0.18327695 1.2596011 0.22449912
-0.52543342 0.65706825 0.41310725
0.57741868 0.70274073 0.16289923
0.27235055 0.44676411 0.42244405
0.63462824 1.7733963 0.11362296
1.2035092 1.8501024 0.31162301
0.51000619 0.98787814 0.36663991
1.1409214 2.5313494 0.11291628
-0.14700337 1.0182287 0.48262569
1.6308463 2.1420162 0.15421267
1.2489656 2.2410948 0.034750719
0.058175161 1.0941827 0.4528282
0.18326734 0.23178118 0.49713627
0.75453776 1.0427566 0.058800757
0.024158342 1.1150519 0.46141607
0.70439124 1.3989418 0.19002129
-0.34447205 0.84937328 0.35897455
1.306111 2.309833 0.35056511
-0.48135039 0.81278008 0.26253685
-0.476767 0.66077071 0.44326273
0.30293196 1.1896096 0.29403341
0.25830713 1.5291041 0.16031742
-0.011000608 1.3981459 0.17746966
0.38440728 0.97843826 0.27937037
0.44400939 1.4177772 0.16505948
0.63686281 0.89752805 0.41062018
1.3589047 1.7878703 0.33270824
0.86503381 1.0851005 0.18757759
0.17579696 0.50634027 0.14512181
1.2589792 1.6508571 0.047302131
0.76950645 1.6588982 0.36079001
0.3048692 0.37585112 0.31008461
0.75384754 1.2872112 0.3082931
1.2796466 2.267292 0.018314792
0.74040335 0.93443084 0.36259368
1.1849597 1.8904507 0.45475274
0.98839748 1.3286 0.10641501
-0.046383683 0.94386363 0.18422036
0.63575107 1.8533775 0.30108505
1.4735848 2.246943 0.43963483
1.9766434 2.1452563 0.25408229
1.2725722 1.6680919 0.27917817
0.12665287 1.2025255 0.46775073
1.5505801 2.394552 0.31693614
1.3491441 2.7513943 0.38553521
0.9607169 1.9738902 0.13496399
1.0896896 1.4609818 0.25524375
1.3915904 2.0620425 0.10534904
0.34410277 0.43005088 0.035844974
1.0014105 2.3275347 0.30926841
0.76542622 2.0513034 0.36888209
-0.06091816 0.79096675 0.0087194201
0.90200484 2.1969492 0.38909784
0.81476754 2.0105424 0.18748699
0.061777096 1.2101845 0.18325725
-0.20585023 0.50654596 0.041468091
0.6487484 0.79715478 0.17273971
1.1560504 2.4556677 0.40978035
0.059769396 0.20322442 0.44016761
-0.34297743 0.91012597 0.40902326
1.2067891 1.9845889 0.36364949
0.5288282 1.5499774 0.16483627
0.75643599 1.3963563 0.12266824
0.52213979 0.6896165 0.045438487
1.1055862 1.6970501 0.45146179
-0.2883555 0.40334031 0.20333189
-0.35340515 0.82025838 0.25580147
0.48462111 1.4479772 0.21528561
0.058019239 1.1090399 0.26600462
-0.29035288 0.94971728 0.20904358
1.6201963 2.5098455 0.48403731
1.4023492 1.5707202 0.34506807
-0.3784287 0.50753969 0.071314067
-0.059950821 1.2299364 0.13052604
0.37282911 1.1827147 0.33964011
0.14773485 0.99594873 0.084191501
0.93259013 1.9364218 0.49914423
0.28155062 0.5153681 0.33974203
1.0004202 1.6232575 0.21133395
-0.10223213 0.74039322 0.14976496
0.80343109 1.6085235 0.46430346
0.94730228 1.3292043 0.023831585
0.26846328 0.69340229 0.33706871
0.37602565 1.1909598 0.29311267
0.67054337 2.0039921 0.079450488
0.50668681 0.80714989 0.3793394
0.38571247 1.6425128 0.23424748
0.95636874 1.0645951 0.31691444
-0.16082789 0.82195771 0.037120663
0.62942594 1.8249319 0.33503371
1.5699391 2.1552165 0.11967687
1.0390738 2.3831868 0.25469962
1.6869786 1.9374998 0.40493825
0.73455542 1.507405 0.19306098
0.11815768 0.36830562 0.16450632
0.23626478 0.92435831 0.27073607
-0.6136924 0.75047624 0.21508209
0.75041497 1.3740246 0.25334591
-0.13653956 0.70744669 0.10081308
0.3189972 0.56688917 0.023488279
1.8266724 1.9020693 0.23041506
-0.35727876 0.8588717 0.20563072
0.82634729 1.8364437 0.29420331
0.75648111 1.099684 0.067446925
1.4944923 1.9998497 0.15588757
-0.12232406 0.76990765 0.39916536
1.0035144 1.9413408 0.38147178
0.14774366 0.37950295 0.1019511
1.1274481 1.5495098 0.4003453
1.407514 2.1248713 0.48798835
1.5928162 2.1388736 0.014645205
0.36546531 1.0787205 0.44461933
1.5011909 1.6878294 0.30174232
0.3187086 1.1240689 0.42308289
0.72957814 1.2855054 0.10175368
1.2830225 2.054811 0.41720521
1.071515 1.4107083 0.24877691
0.48076791 0.99571013 0.33071619
0.46715018 1.8744117 0.47993752
0.16272704 1.3332367 0.23356156
0.19692443 1.1971171 0.42662203
0.72546792 0.79284233 0.1787958
-0.040995724 1.0893854 0.24478249
1.7058324 1.9029257 0.029520329
1.0436534 1.9124413 0.22607031
1.626159 2.1933444 0.49893874
0.86118656 2.2557797 0.11886171
0.25636438 0.72890335 0.30092129
1.269214 2.5222735 0.29846334
1.6418756 1.9793762 0.212301
0.27913284 1.081314 0.065922514
-0.28523517 1.0230494 0.089742951
1.0057063 1.2492405 0.48939303
0.028557235 0.060797237 0.059076056
-0.33888108 0.67872381 0.36623895
0.69077694 1.5673361 0.066769302
0.87388682 1.3752211 0.059832461
1.213963 2.04372 0.22690022
0.44453576 1.1239084 0.16992369
1.8143733 2.2866163 0.28924817
0.36702868 1.2927539 0.072862029
0.52374518 1.6954086 0.035410456
1.2357746 1.7448733 0.12151279
1.1758807 1.7147641 0.13291135
1.3698786 2.022043 0.49268901
0.42602643 1.8308952 0.30259946
1.0415601 1.7819179 0.47984791
1.4595673 1.871606 0.2732113
0.039495677 0.97434908 0.013405779
0.78402936 1.6716658 0.18036889
0.32036141 0.34704512 0.0076621976
0.25962985 1.0260315 0.42190775
0.62019581 0.9659332 0.10190132
0.65395683 1.9632424 0.29242542
1.3596385 2.3853512 0.023000391
1.6595738 2.02338 0.019696519
0.35149455 1.6564602 0.28145257
0.41790774 1.4190509 0.42713025
1.408071 2.7471623 0.25765085
-0.35854918 0.38489369 0.071477704
0.2954568 1.2613685 0.080911823
0.11368786 1.5081533 0.35187572
0.22512241 0.73408401 0.47411233
0.22125323 1.6026145 0.4370147
-0.57646924 0.6390084 0.29965889
-0.38560569 0.64330965 0.42828384
0.070407219 0.35442722 0.38965887
0.95834953 1.8546891 0.24361642
0.66375726 1.530961 0.21705672
-0.36883387 0.50715142 0.47990346
-0.32505053 1.0698766 0.32140484
0.45502916 0.97635639 0.31442285
-0.33327672 0.50778598 0.49436793
2.0813403 2.1161454 0.48275292
1.8036932 1.8593446 0.41248915
0.9107672 1.05232 0.27626565
0.53569555 0.81885982 0.37668186
-0.40128201 0.81956178 0.19358575
0.97361535 1.5118183 0.00018859841
-0.24986424 0.33444458 0.30989617
1.6620561 2.4946404 0.30307734
0.66577673 1.9754894 0.48739436
-0.15064539 1.217237 0.28475493
-0.16701443 1.1858163 0.29706037
-0.14358719 1.0160426 0.31673613
-0.13493873 0.26483992 0.36678258
0.81139791 1.6626951 0.46689624
0.21849009 1.2092137 0.39852971
1.3326727 1.7376608 0.088813193
1.3193762 1.7525576 0.29539755
0.52715796 0.93169135 0.089760512
1.3727952 2.6577506 0.052813869
1.8486556 2.074928 0.036433335
0.76564777 1.3315208 0.014731243
-0.24076141 0.61593014 0.42472231
1.081386 1.9813778 0.066065401
0.81095028 1.1214262 0.36704436
0.43255231 1.2189296 0.21731809
0.19743483 0.59304309 0.36050299
0.76935512 0.77472776 0.013655758
1.7794793 2.2711351 0.1566799
0.074329674 0.49528715 0.11098024
0.35157612 0.66618127 0.19097961
0.15662158 1.1702828 0.39104593
0.15659283 1.2953104 0.19393213
0.033862744 0.77928799 0.012127327
-0.0079082698 1.3816425 0.12189716
-0.14013141 0.38569975 0.39992353
0.65012485 1.4394487 0.03979215
-0.19905801 1.1049601 0.041691657
-0.10911714 1.1308922 0.21551821
1.1677901 1.183458 0.36434916
1.4690131 1.8239335 0.47557887
-0.063200139 0.73402178 0.33396226
1.3538834 2.6350732 0.23655969
0.6269291 0.76495546 0.00010731933
0.44942528 1.0453631 0.4913877
0.92566311 1.603457 0.1772971
0.15281229 1.5271307 0.4563652
0.87775922 1.1398313 0.41740522
0.88434607 1.4870099 0.3558147
1.4068377 2.7932508 0.36135417
0.98960227 2.0594509 0.48683751
0.77418858 2.0676444 0.26869804
0.11203074 1.320925 0.22166699
1.5907946 1.8494368 0.27046669
1.3421185 2.0990236 0.48116249
1.5911664 1.7768979 0.22079882
-0.057936601 0.68777591 0.20669374
0.12777832 0.13180745 0.29935023
1.5034527 2.2979338 0.012424081
0.89881831 1.6791154 0.0025951592
0.50952518 0.89195973 0.38084373
-0.019957332 1.3097548 0.33814937
1.5883127 1.9814632 0.26555803
0.54118061 0.66686136 0.3570019
1.1151499 2.3878779 0.12460824
1.1809918 2.1621945 0.19027424
-0.10853171 1.0826173 0.45392343
0.72513127 2.0028088 0.45534793
-0.052611228 1.0779817 0.23623943
0.27755085 0.85324138 0.012116117
0.054980356 1.0978326 0.14732715
0.041583586 0.10015473 0.1174514
0.88126719 2.1297636 0.2564511
0.39238068 0.62934422 0.30088598
1.3231735 2.727813 0.25086328
-0.11956978 0.98525155 0.097770803
1.2324547 1.2477577 0.018905584
0.58231163 1.506928 0.47063285
0.22197388 1.4883803 0.37035778
1.7428943 1.972018 0.073895141
1.6021632 2.2155578 0.44259906
0.082275942 0.7429167 0.46330708
0.78584838 1.0359524 0.40471724
1.7035908 2.2942698 0.48849651
0.89076388 1.4175582 0.48511156
-0.31051394 0.50484097 0.37572488
0.39803052 0.62590933 0.38113531
0.13003352 1.0543256 0.20803656
0.42748696 0.50768346 0.15577886
1.37963 2.6981306 0.23678631
-0.35735995 0.81950074 0.45365405
2.0900035 2.1277149 0.18722585
1.6306952 2.2756736 0.27565101
1.2672415 1.8306265 0.48448759
0.83371598 2.1665416 0.17073753
0.73816186 2.1357632 0.45900902
0.74735737 1.0720584 0.039576355
0.04566402 0.76515144 0.36636293
0.77242661 1.8036375 0.39471668
1.4608203 2.4370711 0.36087704
0.26707578 1.3973736 0.27696013
0.074600331 1.1965907 0.29029313
0.9249776 1.9348773 0.018327378
0.16394089 0.79224968 0.21751404
0.30519119 0.51937228 0.18873906
0.55058169 1.7227378 0.18286575
0.78054255 1.1449571 0.29766491
0.81331491 1.4480011 0.052042119
0.52410358 0.60326433 0.41663021
-0.57222432 0.80623364 0.261787
1.3885459 1.9076067 0.16140759
0.23040272 1.1731938 0.058091078
1.6924764 2.1743388 0.41514456
1.6108677 2.4114604 0.13728525
0.27495408 1.3504013 0.2130097
1.4039263 1.8229331 0.12742947
-0.26247695 0.79836309 0.25626945
1.3306291 1.7310276 0.48066494
1.3635304 2.1397183 0.0086524906
0.97082084 1.8250117 0.49601096
0.11791667 0.6566115 0.17952667
0.56877834 1.5753387 0.012853676
0.87787551 1.7591608 0.18321781
0.55458301 1.3624308 0.46627009
0.86614245 2.2157753 0.3464981
-0.18215735 0.8288818 0.4946394
0.26916575 1.4588336 0.36970299
1.5532556 2.349262 0.011265222
1.5944558 2.1439984 0.28568906
1.8723 1.939573 0.087691128
1.726288 2.0517371 0.27814853
0.0092819212 1.0494368 0.13402134
0.33141619 0.83636957 0.44560274
0.78924125 1.9331992 0.23122005
0.83959121 1.5966415 0.20838735
0.08055041 1.0531756 0.065843664
0.47691417 0.61132556 0.48645476
2.1021183 2.1231554 0.26788557
-0.59448349 0.67270499 0.46217817
0.68938702 1.8129864 0.48596281
1.1388649 2.1075923 0.10102646
0.021175692 1.3428093 0.46877673
1.1022559 1.3989379 0.1473047
0.41772783 1.6218899 0.051754914
1.6997794 2.3018055 0.31941262
0.27361739 1.2535522 0.16328755
0.37159511 1.7142764 0.21080916
0.31702209 1.6539145 0.21824688
-0.68079299 0.68217319 0.16626567
1.5701075 2.3529844 0.063517995
1.6765833 2.1273992 0.40601486
-0.24344896 0.66202861 0.37328291
-0.085676938 0.23931837 0.47817582
0.19934767 1.2042155 0.40391144
0.45910111 1.3836172 0.11675981
0.14551231 0.16487129 0.46321908
0.49063745 1.205287 0.43792865
1.0565355 2.4281638 0.41059145
-0.13907178 1.2330166 0.39247277
0.61959177 1.885164 0.1692616
0.96218556 2.0815382 0.3286491
0.49367705 1.7525563 0.14878376
-0.069544956 1.2405481 0.26368695
0.31104246 0.67477643 0.1189614
-0.40374652 0.57422686 0.44582716
0.039892804 1.1213274 0.45267159
0.30829731 0.54082644 0.20533834
-0.53583241 0.85826319 0.1902822
1.7309422 2.0754726 0.17538869
0.85728353 2.0367324 0.12283603
-0.34610119 0.43370879 0.018586989
1.3809733 1.4953142 0.46366805
1.8170421 2.3217175 0.42685589
0.65014762 1.4834292 0.055455275
1.1264447 2.0165532 0.40122107
0.70307219 1.9802539 0.28356594
1.067861 1.2138704 0.3657774
1.8852993 2.1387856 0.35866466
0.64398223 0.75206 0.48047453
0.90575743 1.9785073 0.39747268
1.4123054 2.5142577 0.17317715
1.7188888 2.3653901 0.21360277
1.5820588 2.193933 0.39203241
0.91613853 2.2392051 0.18664196
1.3346891 2.291208 0.0013427995
1.1754915 1.6122389 0.45289475
-0.12304907 1.0742755 0.0045168898
1.465239 2.5897117 0.09413787
1.340037 1.5156435 0.13234913
0.77648664 1.9135147 0.011623463
0.39417973 1.4258485 0.40122244
1.1553018 2.1341834 0.12979516
0.017996065 0.84132797 0.34612539
1.862465 2.3233645 0.31390005
0.63578999 0.89110839 0.15208057
0.17686532 1.3614271 0.30649412
0.52558368 0.61300737 0.22981225
0.57602894 0.60088927 0.12737335
0.4994753 1.4762292 0.18945962
1.3197584 1.7789657 0.091459744
1.0657345 2.131618 0.45620975
0.80551606 1.553681 0.30229661
1.2129697 2.247576 0.093388401
0.56960344 1.5852727 0.25634098
0.23267198 0.34309378 0.34660965
0.62151313 1.2446991 0.26541549
-0.38922805 0.61348826 0.29632443
0.38962975 1.7846521 0.30511388
1.3078518 1.9472288 0.15044853
0.18099336 0.4390648 0.31280285
0.036132105 1.3599877 0.18964957
0.16425304 0.8602941 0.45416582
1.5771382 2.0124807 0.3199544
-0.50711483 0.64651996 0.17904769
0.48448694 1.8300436 0.21808769
0.22977825 0.7831921 0.4384172
1.3184642 1.9466313 0.29293093
0.091961533 1.4448894 0.28614584
1.5510435 2.5747848 0.01219972
-0.035320874 1.1951064 0.10344175
1.7662094 2.0477962 0.071495391
0.27874616 0.90184885 0.31758308
0.19312517 0.59855396 0.47149995
1.5273424 1.9792396 0.37937143
-0.22009793 1.0033094 0.35509756
1.2434481 1.3902987 0.050758895
0.43799186 1.6732075 0.27284956
0.010437213 0.343723 0.25118178
1.24392 1.5382682 0.11312895
1.1023813 1.7833247 0.04815067
1.6126868 2.1507518 0.14770669
-0.40207022 0.52952653 0.36800674
0.8133741 2.0088639 0.011347465
0.81513512 1.765272 0.17111723
0.17281622 1.3840237 0.10365704
-0.17380382 0.50110567 0.15557656
-0.31031865 1.068324 0.092291251
1.4953641 1.5778465 0.21012557
-0.023980239 0.98589826 0.3141934
0.68214101 1.2397079 0.054943245
0.96629405 1.3641269 0.24517798
1.5717177 2.0120361 0.074547179
0.54134476 1.9224092 0.49721664
0.8665269 1.6935135 0.33314079
1.3330425 2.6789758 0.26136729
0.30405828 0.34487849 0.49998382
0.83777946 1.1312681 0.48740759
0.71713632 2.0350285 0.016569551
0.034090348 0.25840831 0.3736155
1.0467918 1.9117261 0.070745215
1.5985996 1.8261273 0.21140039
0.62729579 0.6351946 0.36707646
0.532947 1.3620971 0.35535643
0.80157167 1.069855 0.14774033
0.13208503 0.3234942 0.12359956
1.1328163 1.5405378 0.13803168
0.80457312 1.8686438 0.24179558
0.99956071 1.566806 0.20774084
1.0211096 1.6858544 0.2870492
0.69892609 0.93563002 0.092849672
0.42828476 1.8065643 0.17329288
1.8218724 2.2067685 0.1760855
0.94208485 1.9586624 0.46923432
0.72361648 0.94978935 0.06408681
1.2744957 1.6525284 0.13176017
1.3533252 2.6224759 0.27591145
0.079194404 0.82520378 0.15211724
1.3844252 1.5716766 0.35266873
-0.30668604 0.78288662 0.087691553
1.3458414 1.5660526 0.17137904
1.3672943 2.3324552 0.15867446
0.016860001 0.91068763 0.29475582
0.98757643 1.4341062 0.15417024
0.57814777 1.5824796 0.23413444
1.0693145 1.6351074 0.36778915
1.6727988 2.1496453 0.31650165
0.57133865 1.3496511 0.080255784
1.4311405 1.7806067 0.14645913
0.72670025 1.2348999 0.031681255
1.3205351 1.3851526 0.10953765
1.4310099 2.7288771 0.45077357
0.53540379 0.72824007 0.26678935
1.382333 2.3823969 0.42466149
0.26210389 0.56816334 0.27974638
0.80471516 2.0122485 0.47978437
0.31382477 1.3812926 0.14837505
-0.077750951 0.21583323 0.42355007
-0.2725457 1.0916209 0.047105007
0.72900122 1.332821 0.22678073
1.1195723 1.2110744 0.24962646
1.5980934 1.6620109 0.20849185
1.178636 1.6637682 0.27666977
0.26885879 0.5946874 0.13024575
-0.18915336 0.41343096 0.23845409
1.2353228 1.3626815 0.16538163
0.86703569 1.5594335 0.042788491
1.473524 2.2119491 0.14658618
1.0126618 2.0241122 0.12889192
1.5759811 1.860492 0.34237444
0.028368909 1.0897619 0.37472531
1.2512003 1.9850812 0.39732358
0.24780872 0.51494408 0.068843707
1.2776948 1.8326789 0.18404151
1.7929012 2.4226444 0.39708725
0.95736188 1.0388931 0.44211534
1.2546052 2.1449594 0.18691492
1.5290025 2.2336342 0.44798765
0.23057249 0.53324866 0.30558935
0.91177583 0.94572943 0.4061791
0.056672048 0.46333596 0.28143817
1.8142234 1.8854343 0.040904257
1.2514788 1.5769407 0.13535087
1.0251623 2.3874154 0.33156738
-0.31082016 1.0424012 0.054215256
1.748276 2.3527019 0.083040878
1.6432048 1.9666054 0.39782864
0.39489794 0.55829728 0.14695358
0.046924729 0.46493113 0.25396577
1.0338463 2.0710211 0.26597017
0.5491299 1.7596407 0.40974757
-0.28765219 0.74186432 0.43492442
0.12159342 0.67970282 0.049992535
0.83418238 1.1156042 0.031621706
-0.0023468966 0.52293515 0.010057681
0.25127941 0.72934055 0.22375455
0.70906377 0.97618145 0.33809394
0.11672153 0.70157093 0.39586434
0.65488344 1.4103515 0.043651924
1.9219978 2.298208 0.41034859
0.54429823 1.6900988 0.33832881
0.08568763 1.3828921 0.20231785
0.38315272 0.5332424 0.39963934
0.27028868 1.0703073 0.49913695
0.31768349 1.2912314 0.1848522
0.19691795 1.4973392 0.35387236
1.5724608 2.0204167 0.4483127
0.74916941 1.4698898 0.1550882
-0.036846578 1.3722854 0.42218649
0.15209199 1.5537456 0.055196896
0.1064406 0.83867967 0.46029854
1.2970848 2.5188506 0.41892961
0.58850074 0.70151788 0.47199431
-0.060726169 0.49915624 0.25484359
-0.3325403 0.76364708 0.09904477
0.87645179 1.123178 0.058813121
0.36477852 0.39491704 0.21718954
-0.2243553 0.54546958 0.47200263
0.21105509 1.4260262 0.47020599
0.3037208 0.67309093 0.46576539
0.38038138 1.0647916 0.22465099
0.2830599 0.82523501 0.15661037
-0.27589577 0.69628555 0.19656797
-0.46778551 0.65053916 0.39451629
0.54157311 1.8036001 0.28207707
1.3356197 1.8499763 0.36930797
