# .PCD v0.7 - Point Cloud Data file format
VERSION 0.7
FIELDS x y z
SIZE 4 4 4
TYPE F F F
COUNT 1 1 1
WIDTH 1444
HEIGHT 1
VIEWPOINT 0 0 0 1 0 0 0
POINTS 1444
DATA ascii
0.14794581 0.39553544 0.93289459
0.42529479 0.72261941 0.54020041
0.19364059 0.633497 0.86540031
0.19521132 0.67819798 0.28354207
0.36419553 0.4837057 0.96056461
0.25994176 0.76226819 0.90619332
0.050106797 0.033350624 0.46369472
0.029906999 0.34866315 0.56753844
0.33410141 0.96056181 0.70598739
0.3944945 0.43906963 0.99759084
0.39093834 0.73496127 0.39312628
0.35738564 0.58555084 0.11574566
0.12748584 0.97283202 0.74924266
0.060185991 0.36325467 0.42744064
0.20195703 0.091645733 0.91114634
0.18223934 0.61152923 0.67341453
0.135336 0.71174282 0.70676517
0.36718336 0.77155685 0.055428293
0.15095256 0.43975964 0.015990091
0.0039462522 0.22874863 0.45505974
0.0027416707 0.010625334 0.19002099
0.1993048 0.72539663 0.77557182
0.25717762 0.98036832 0.74840385
0.13179895 0.10074029 0.11165848
0.34551927 0.50465435 0.20330422
0.30109245 0.86913306 0.81483346
0.1377997 0.13980503 0.52657628
0.49118227 0.87417173 0.29813311
0.018896425 0.17607686 0.73789275
0.02689147 0.18396936 0.96664137
0.25442132 0.18945271 0.97726673
0.34943184 0.58806229 0.70266336
0.23721774 0.10241758 0.68303162
0.11141965 0.36601549 0.78377193
0.16724889 0.05705405 0.28842628
0.26890099 0.65923893 0.15755934
0.17631772 0.93483829 0.29736435
0.43960586 0.91720289 0.1715361
0.088672407 0.95499575 0.34761298
0.45761877 0.0087786652 0.53158236
0.44093946 0.51762134 0.72103506
0.42957282 0.21648501 0.30909735
0.2809045 0.69092047 0.41151494
0.12242032 0.91375977 0.77753043
0.014306286 0.24825756 0.83458447
0.15851943 0.78605956 0.49382341
0.2372991 0.13869502 0.4286617
0.38598129 0.017906733 0.34586459
0.47174934 0.19525155 0.30086032
0.14555582 0.11048912 0.30963898
0.411347 0.99236804 0.82726032
0.2718645 0.85151368 0.043745328
0.42641318 0.41332272 0.73466581
0.13217065 0.65816331 0.64842558
0.020935869 0.68677592 0.89668316
0.4382281 0.0038147797 0.68274271
0.18513981 0.47841299 0.82143772
0.39947066 0.25037557 0.8393445
0.072402969 0.19387425 0.034596026
0.22283313 0.48498592 0.14508514
0.37765262 0.30767989 0.1374532
0.29128277 0.8514089 0.98896688
0.31315544 0.70423526 0.4022896
0.18048835 0.96857655 0.060452953
0.0047011459 0.010448316 0.74722886
0.45304272 0.88690454 0.75104362
0.2944141 0.25718415 0.22945663
0.20513296 0.056125507 0.4798322
0.1248052 0.20093144 0.67370647
0.14210322 0.64659768 0.15869236
0.21464579 0.40190291 0.46637225
0.2833724 0.98446846 0.31778115
0.27785584 0.61077935 0.022016415
0.47900066 0.97175604 0.99059302
0.0092271287 0.98115832 0.0010413099
0.38284156 0.88724381 0.88794583
0.2583634 0.47607198 0.14513001
0.3730917 0.88633794 0.20125552
0.1130078 0.13594835 0.40218696
0.44986102 0.42015478 0.048784651
0.0292072 0.84944636 0.45068759
0.26239333 0.41619116 0.43515605
0.4212839 0.97190285 0.045935407
0.4322921 0.92990416 0.017691454
0.42758858 0.94835842 0.99884981
0.42810926 0.71404153 0.88609362
0.37208217 0.23076829 0.3621656
0.44464719 0.97695172 0.24850352
0.045274939 0.20296729 0.38445187
0.24636842 0.10268933 0.80460662
0.27076074 0.16110373 0.65405303
0.49610454 0.68589038 0.070244171
0.21368256 0.52845818 0.042147018
0.23665026 0.39304236 0.97205114
0.24549599 0.24821953 0.92040956
0.24492088 0.10443804 0.63445109
0.18796769 0.84860241 0.86521941
0.36905047 0.73789674 0.84217107
0.49330223 0.82844663 0.045138378
0.18552816 0.32118347 0.1478277
0.087831482 0.86270499 0.30893144
0.41485798 0.85491407 0.99482179
0.44998008 0.28227916 0.52327996
0.4710536 0.75557971 0.91632229
0.45707917 0.24657166 0.16454184
0.41728395 0.73641342 0.26897988
0.23450951 0.11234879 0.11758228
0.16711922 0.85044974 0.85547906
0.088204771 0.83705419 0.68392569
0.11077396 0.20811054 0.005109163
0.18468781 0.38377351 0.86781412
0.33915353 0.21348949 0.72272819
0.33656442 0.11344965 0.005007335
0.098204404 0.055556815 0.76058704
0.056365553 0.96971518 0.0071586762
0.13863647 0.80428308 0.74357212
0.27312642 0.27330211 0.85592091
0.33191755 0.60754055 0.70637065
0.25965708 0.78395009 0.54342484
0.10161992 0.005498006 0.75153542
0.1041745 0.37487364 0.13530889
0.038081568 0.053180676 0.34879839
0.39944565 0.72630954 0.46224803
0.40194932 0.92271835 0.51780486
0.28224283 0.035449442 0.48752001
0.28582218 0.31272238 0.29180309
0.15760823 0.85897523 0.5651052
0.085568674 0.52281034 0.17264576
0.43875399 0.042124499 0.95659584
0.21046643 0.24536434 0.96209383
0.086234123 0.45371333 0.3369675
0.15388857 0.52987647 0.39014816
0.32828775 0.32876778 0.11645769
0.059411775 0.13266644 0.039176028
0.31831419 0.69715208 0.07462547
0.062074203 0.26879644 0.38734785
0.20797575 0.58401287 0.24632309
0.49052835 0.75515026 0.76913345
0.076851226 0.63265824 0.8112579
0.055149153 0.05359108 0.056622259
0.036196083 0.22605932 0.51033562
0.20467982 0.53383648 0.040212065
0.3997539 0.19041198 0.36897984
0.45798275 0.30923554 0.50164628
0.47757077 0.94586396 0.19879837
0.014883498 0.070012338 0.46759483
0.20855743 0.48596382 0.051607706
0.33171898 0.46702051 0.80675793
0.21628569 0.62072301 0.43941617
0.12191465 0.73102129 0.49300724
0.15022577 0.80341345 0.71906656
0.40539357 0.2127731 0.25290304
0.42549962 0.012280909 0.44331503
0.10998954 0.92824644 0.75255054
0.36081266 0.88338792 0.6984145
0.46021187 0.91315496 0.76842684
0.19400927 0.33026978 0.25439066
0.21981312 0.99370772 0.72141117
0.1231921 0.4262791 0.34213418
0.34290019 0.67010844 0.073155463
0.089403816 0.97055995 0.87656891
0.44893709 0.78134716 0.089342013
0.075388625 0.63234633 0.10162292
0.29704612 0.85232544 0.029869337
0.17332141 0.57395077 0.9132573
0.022528661 0.49437451 0.8264122
0.4067421 0.88239306 0.156682
0.033937417 0.32201931 0.15038973
0.39464301 0.56840354 0.57666886
0.065710105 0.25420389 0.24677725
0.10228784 0.43301153 0.21733722
0.040572293 0.33088571 0.99868435
0.0852433 0.48166296 0.63103068
0.13605477 0.075755231 0.48335612
0.15098943 0.42239806 0.057306904
0.10761807 0.46745539 0.5516814
0.020824173 0.28093955 0.43407449
0.099165171 0.34881437 0.7560938
0.17436004 0.13810042 0.32449731
0.46269447 0.26952064 0.5787012
0.086083092 0.4740963 0.011712736
0.19475171 0.55524087 0.34259847
0.19409388 0.7257275 0.82426143
0.0096092373 0.99783701 0.90001667
0.25128731 0.29981589 0.32241473
0.27994075 0.51505202 0.78987008
0.055781465 0.55670035 0.07080964
0.27281871 0.75503075 0.41962403
0.1508656 0.10375081 0.55772442
0.31311426 0.029139742 0.82724506
0.10246488 0.20130593 0.30134135
0.10832125 0.59080935 0.85658228
0.27962047 0.97899711 0.58230972
0.19175118 0.99821562 0.58014679
0.14175951 0.50079018 0.87996268
0.30296686 0.060671702 0.3950147
0.19790192 0.17223462 0.95171505
0.23330674 0.71787202 0.7067458
0.44311875 0.019603251 0.81049663
0.22198097 0.64583176 0.83963633
0.1356035 0.85076153 0.040942285
0.28627419 0.067404039 0.63175166
0.21456532 0.62664497 0.61074877
0.0057201916 0.01014737 0.60896432
0.29579359 0.29366639 0.10975452
0.23577492 0.89960015 0.17042622
0.43328226 0.29540399 0.34266084
0.40913981 0.76201749 0.060532887
0.26251268 0.64825499 0.080136135
0.167761 0.092216909 0.72596794
0.087579183 0.36342391 0.57672948
0.10805032 0.93597227 0.64413351
0.42392614 0.36510292 0.27077851
0.22930051 0.37654331 0.28092587
0.033782672 0.96813047 0.57459229
0.088659935 0.43968031 0.47419244
0.17387304 0.30624482 0.7695964
0.34520346 0.12452441 0.53161389
0.37546992 0.64954978 0.17986883
0.41553798 0.98507184 0.27208576
0.27852196 0.16023017 0.63550967
0.066886678 0.37633082 0.57148194
0.38895345 0.2241831 0.93658489
0.024342693 0.68278414 0.3131282
0.16480564 0.75034946 0.28125867
0.45210177 0.92766935 0.72093898
0.18919799 0.27541542 0.027183784
0.073996194 0.96582234 0.1517082
0.33980313 0.71676219 0.80125803
0.42973754 0.54783815 0.78632981
0.065780424 0.10488202 0.94655997
0.38353527 0.23865539 0.32289082
0.16927624 0.016562257 0.5470739
0.13756868 0.065247647 0.22985804
0.2941328 0.39485893 0.9802075
0.43476212 0.29906246 0.90787685
0.29523161 0.67745847 0.18329224
0.3088235 0.82545084 0.14911459
0.38467759 0.5050571 0.86587679
0.2853066 0.3645322 0.41371492
0.17847151 0.49609306 0.51859695
0.1517515 0.26316357 0.75725234
0.31319693 0.60171604 0.77381456
0.08673387 0.87685347 0.83906221
0.20166288 0.46511903 0.23392113
0.19176663 0.33464327 0.5329836
0.14570504 0.92510653 0.21044205
0.23735116 0.54275352 0.035892885
0.31190848 0.31210873 0.54095
0.24484685 0.8827219 0.90548217
0.45170432 0.23966494 0.40157524
0.21100277 0.54316795 0.66473883
0.089628927 0.16956177 0.26645488
0.47653621 0.34302953 0.14330831
0.39606732 0.7463553 0.60842735
0.013027882 0.12988858 0.94307059
0.27951968 0.42129868 0.86817712
0.38474071 0.89600104 0.41093063
0.40268713 0.51981795 0.72303933
0.17316213 0.0095116738 0.60576129
0.12590323 0.9129203 0.8454262
0.32669085 0.33492583 0.38859415
0.15906025 0.5141837 0.55815595
0.29228768 0.46725613 0.90118545
0.36394185 0.25939074 0.64754075
0.16815551 0.28544652 0.77742934
0.13969082 0.84448588 0.19872804
0.073779382 0.6139673 0.094729066
0.27924469 0.41934156 0.61454701
0.14076437 0.76566583 0.62405872
0.443645 0.017472304 0.53697902
0.3663581 0.67085397 0.87190485
0.060655184 0.98897451 0.38608852
0.33973315 0.57354987 0.85334462
0.29032588 0.30143359 0.11273539
0.11409627 0.63774461 0.39818192
0.0028109511 0.91712624 0.24266778
0.10217497 0.064685002 0.85663503
0.1495395 0.62317437 0.27597663
0.45681304 0.90470314 0.041642476
0.26884237 0.79199314 0.059114784
0.037331879 0.52470934 0.72996879
0.4732843 0.6460197 0.7189433
0.16632856 0.325486 0.29249319
0.093000881 0.90613776 0.59392679
0.14936858 0.13433032 0.23167138
0.34845954 0.13995223 0.14879763
0.46979341 0.34430218 0.21348263
0.39811096 0.64338118 0.83665705
0.036099263 0.55700725 0.74136013
0.056920502 0.094691992 0.53335327
0.086477891 0.16935575 0.058062617
0.4514623 0.11592434 0.70408231
0.31093395 0.44858146 0.029568329
0.45718053 0.63458323 0.93570608
0.25414392 0.9333204 0.070036434
0.36997959 0.63023943 0.20998865
0.44437841 0.56982625 0.55429083
0.051119734 0.36604816 0.19767201
0.46944824 0.4382467 0.75467926
0.34012833 0.55208772 0.84937125
0.10680496 0.72504348 0.018726986
0.13583627 0.62796807 0.13465133
0.48787743 0.24983592 0.58323282
0.0026615912 0.16419698 0.21781603
0.47051466 0.67248482 0.1511364
0.0055328612 0.41244403 0.78137583
0.11052719 0.30120084 0.3512021
0.3876726 0.4034403 0.71725029
0.48650861 0.3423368 0.15549698
0.36384824 0.022593435 0.70758468
0.28853387 0.23620336 0.43262815
0.29789734 0.50787586 0.060596228
0.36522302 0.48363075 0.31043217
0.15683942 0.48895392 0.47462913
0.26574743 0.4299832 0.14711393
0.34131563 0.44104892 0.55955797
0.23200354 0.6621033 0.86075878
0.4076046 0.43744853 0.26419911
0.26622972 0.41046575 0.60653591
0.34397823 0.13816223 0.62912935
0.19777057 0.71522993 0.86533266
0.41408464 0.31102464 0.37320858
0.44438276 0.041470647 0.8568393
0.09959884 0.35514948 0.34579325
0.33691341 0.8866443 0.77577645
0.41047037 0.56927556 0.21682538
0.19024935 0.033282608 0.87892872
0.12062875 0.84849179 0.31637722
0.25272831 0.38095126 0.72684294
0.055996258 0.0689077 0.8650052
0.37056091 0.46444884 0.58023512
0.30322728 0.29261813 0.89125973
0.48983157 0.18138365 0.93273038
0.41825122 0.38058132 0.28787985
0.091147825 0.05440814 0.17452414
0.47903606 0.87534893 0.74379969
0.087448739 0.2558476 0.77708226
0.026913086 0.49710512 0.62557405
0.1851017 0.0025617196 0.0065253368
0.04852318 0.11455423 0.075433038
0.48102579 0.85567605 0.53988189
0.27114332 0.46213061 0.83249998
0.2167732 0.44179374 0.013883647
0.18313839 0.27829614 0.39446497
0.32707831 0.46059179 0.4488731
0.41434038 0.41866392 0.324222
0.28624022 0.59356141 0.5800696
0.17478137 0.64738756 0.077174723
0.48756841 0.017590944 0.079736441
0.49083108 0.1146373 0.19429068
0.028547602 0.076688848 0.04996676
0.29848853 0.61897552 0.51209736
0.21473853 0.052521899 0.9538911
0.22168036 0.41879869 0.23218726
0.41891286 0.072955303 0.69277906
0.14334941 0.90163606 0.11144297
0.30546042 0.47411653 0.70500433
0.095495217 0.82367927 0.3523919
0.13408259 0.79881608 0.36998284
0.17395081 0.78047824 0.48462015
0.27109614 0.83757347 0.56130898
0.29607952 0.43455055 0.1802845
0.052128211 0.86402762 0.2328064
0.029073767 0.30738834 0.65160507
0.1451674 0.14521402 0.72456038
0.49155694 0.43191281 0.62619644
0.047278419 0.042833641 0.10031299
0.3997806 0.23382407 0.92399228
0.075976551 0.50198925 0.72280836
0.26096797 0.84989083 0.50328666
0.003278052 0.39208314 0.3408601
0.28393257 0.9842422 0.77541065
0.37407482 0.0884986 0.63943827
0.49047801 0.14664613 0.94682658
0.31628054 0.43698093 0.092040606
0.17856075 0.42009479 0.52395344
0.49165899 0.51465166 0.56678706
0.041815467 0.31421283 0.80061114
0.0038116015 0.46616593 0.30260038
0.36521578 0.98810184 0.15249124
0.11685911 0.99465799 0.54457438
0.28728917 0.56252307 0.52881652
0.17499448 0.3106727 0.61731511
0.49471363 0.29162872 0.76396126
0.46812692 0.92418981 0.2009422
0.01414722 0.2813113 0.62103701
0.27612394 0.26462924 0.13568863
0.059517469 0.34826016 0.44990146
0.45982304 0.35588339 0.91606736
0.11112324 0.086314954 0.90416926
0.18736885 0.32003316 0.8988272
0.45965603 0.89461148 0.46135029
0.22406431 0.24460047 0.77202296
0.032721881 0.23402773 0.063651696
0.4147025 0.17028156 0.98784149
0.015173619 0.198576 0.26915279
0.32569212 0.75082386 0.53378206
0.39353642 0.8698588 0.88204223
0.11848716 0.78950489 0.2379256
0.076520838 0.011751374 0.32424057
0.028605459 0.38648909 0.64427376
0.47801906 0.30580118 0.53888524
0.2086942 0.75392979 0.78348571
0.094705701 0.81937355 0.017513439
0.12653154 0.64877862 0.187795
0.1204523 0.67912585 0.38637099
0.25502869 0.33051008 0.13719487
0.021919722 0.11758294 0.00705367
0.46294084 0.35455725 0.79655856
0.081903636 0.50759894 0.80830991
0.24402392 0.56480986 0.19479904
0.066160783 0.52084798 0.50060022
0.33560339 0.93823642 0.25453001
0.22734626 0.12764779 0.073903576
0.23610297 0.38071087 0.72268218
0.33000046 0.62161547 0.40180802
0.02318597 0.13167286 0.7323181
0.091783404 0.17551231 0.84990102
0.095310241 0.10139398 0.20445827
0.49358952 0.26520124 0.71205717
0.39774448 0.75324905 0.27686703
0.49514401 0.88557065 0.79771501
0.2454441 0.55677742 0.73595142
0.3727091 0.011469936 0.86359918
0.40966091 0.48367587 0.24431007
0.27100199 0.14367682 0.86592555
0.47190598 0.19004877 0.99759841
0.33806503 0.37361556 0.17311069
0.26301554 0.56423604 0.27450466
0.36524469 0.55141509 0.53970593
0.22127329 0.34690407 0.29295498
0.35970682 0.33719209 0.17852563
0.25856432 0.8280803 0.73530304
0.12654002 0.57349849 0.746773
0.058339614 0.3928203 0.23044887
0.18049465 0.93482429 0.37412569
0.1134574 0.87863624 0.56417447
0.1122566 0.5547663 0.93779004
0.19881195 0.080797426 0.50202608
0.33606428 0.81128681 0.053441167
0.10591724 0.25383335 0.40034524
0.25239474 0.97324699 0.73753732
0.34165755 0.49037561 0.56561762
0.20930907 0.74345565 0.13911611
0.082695574 0.8601349 0.53193641
0.19792001 0.22112417 0.46676069
0.38498285 0.448039 0.34539694
0.16707009 0.67255217 0.90016323
0.13596511 0.070176087 0.98096067
0.38697815 0.74230462 0.79224747
0.41369873 0.95413911 0.046080846
0.11387134 0.45892859 0.019327831
0.48264 0.1422437 0.50970346
0.26544881 0.56086183 0.25315911
0.33500686 0.72625297 0.11329401
0.10097506 0.12209301 0.33441818
0.33435538 0.89205873 0.78245717
0.0070538651 0.2261989 0.45500937
0.4571355 0.4981291 0.52518547
0.44761583 0.2720854 0.26749009
0.34373957 0.099482857 0.22162922
0.36678001 0.32722554 0.68055779
0.37644392 0.29250553 0.82280153
0.13129564 0.82340312 0.38366336
0.2578752 0.49341685 0.10991634
0.31452221 0.69536698 0.23200935
0.4817313 0.36407775 0.12406808
0.37295988 0.37818548 0.35026699
0.10046456 0.29245648 0.84839606
0.36305729 0.18768814 0.12048149
0.49680233 0.87516731 0.21996436
0.10761694 0.60872734 0.54718989
0.44789585 0.36161515 0.83969545
0.35929659 0.62420642 0.66309857
0.051128283 0.13995683 0.15651542
0.10608646 0.76900125 0.85188234
0.22209114 0.73246384 0.21596012
0.28412518 0.47838357 0.5941456
0.45925868 0.67931271 0.88660204
0.38345671 0.40542725 0.074290201
0.44369745 0.39903191 0.94945753
0.05367963 0.6142658 0.5581848
0.32727459 0.51005751 0.91979998
0.2471223 0.2286507 0.54400641
0.078671582 0.33090729 0.68396324
0.15692928 0.54308021 0.45296445
0.082870476 0.98726249 0.18542828
0.19085053 0.55551279 0.66381186
0.48792332 0.47403014 0.34312454
0.43122435 0.24094357 0.74855179
0.46836945 0.12833849 0.14758372
0.44309819 0.23569775 0.76184952
0.2221906 0.89024693 0.27190703
0.18209058 0.3844915 0.50055772
0.45409378 0.54183465 0.83146501
0.2960754 0.85569322 0.37454519
0.022557626 0.021434193 0.36180764
0.11527176 0.40313524 0.91732049
0.44717768 0.37898189 0.3913506
0.11873996 0.24143058 0.63229418
0.49301586 0.17816947 0.76063263
0.066807717 0.064365871 0.99633038
0.44773248 0.5087471 0.88657731
0.083685987 0.87292826 0.27106878
0.33396485 0.78111583 0.81290346
0.24969736 0.37326661 0.66859668
0.43696997 0.41838187 0.69003087
0.11787378 0.64892542 0.093166135
0.076534018 0.54328078 0.47214803
0.27220932 0.78076071 0.71357858
0.088356405 0.76679242 0.89174807
0.46867272 0.90040785 0.95611393
0.46683791 0.79587281 0.46486104
0.41012657 0.96324474 0.3377893
0.045660958 0.63117445 0.11890513
0.45211267 0.13056917 0.49217176
0.28641102 0.0045090774 0.91055363
0.13142647 0.24025664 0.559479
0.17800954 0.39332467 0.10275979
0.41408354 0.93774331 0.88352048
0.27087286 0.11445611 0.6503129
0.2167469 0.051801562 0.55072075
0.19480388 0.98547739 0.3465935
0.42723441 0.80573052 0.30983827
0.096129052 0.89705247 0.94101274
0.15558162 0.80127782 0.071581893
0.40166751 0.37409985 0.076090969
0.35694432 0.63695276 0.3163476
0.13668382 0.99297184 0.70967227
0.18806373 0.82113892 0.64741558
0.12982397 0.36288464 0.7618717
0.4549804 0.79637843 0.81367326
0.23034076 0.18598618 0.79915065
0.40363753 0.040454976 0.60488117
0.058556657 0.23271309 0.50193363
0.029063016 0.54387635 0.30321145
0.064853959 0.34721133 0.6773113
0.10289945 0.061099939 0.31426406
0.26107326 0.33446759 0.30723593
0.11590939 0.71059501 0.12837486
0.43961719 0.97024292 0.49125949
0.32055303 0.88020378 0.28763792
0.22738966 0.34088531 0.47362411
0.12696499 0.14816035 0.51407909
0.4294056 0.26527366 0.74679214
0.1803724 0.32339969 0.29066849
0.33197814 0.45310763 0.63787979
0.17063378 0.65890652 0.69897974
0.32776582 0.18105301 0.033447325
0.48138377 0.41287181 0.74404234
0.045571193 0.29210618 0.71428531
0.29120094 0.93321222 0.59448904
0.43501991 0.38799155 0.93537438
0.17183195 0.64192152 0.083534703
0.42887148 0.50073272 0.34880838
0.30226758 0.86147755 0.67220807
0.44760182 0.52543378 0.12531568
0.26654172 0.86670136 0.78422219
0.11603159 0.52223295 0.96527523
0.13275526 0.48500049 0.37814701
0.004776434 0.57614285 0.67025322
0.36191908 0.15854476 0.60346544
0.15916361 0.02858457 0.99145699
0.12685078 0.37224847 0.63337857
0.16861814 0.22999147 0.13411126
0.34302232 0.8345266 0.99558878
0.17912635 0.72973025 0.52102262
0.24178419 0.26281372 0.38772392
0.13389529 0.49487689 0.90995687
0.1165329 0.76038742 0.39495736
0.3056064 0.76994032 0.97110027
0.140733 0.49377847 0.129645
0.44246572 0.81210566 0.15822957
0.43819422 0.065807238 0.53047806
0.2548835 0.40304351 0.76046956
0.32193911 0.089088142 0.59499615
0.3197335 0.44734085 0.3247264
0.080244809 0.93090922 0.58754009
0.27410677 0.1986998 0.082417019
0.22908521 0.43176559 0.84280443
0.42656389 0.04297841 0.61274475
0.41211402 0.32444441 0.1065232
0.47693652 0.20937584 0.91862887
0.05605131 0.085764274 0.98443609
0.32129034 0.59553123 0.3874796
0.20152511 0.23940948 0.47656775
0.49902317 0.87887651 0.92390859
0.16138639 0.039366107 0.85481781
0.45515645 0.58757967 0.053517632
0.49636495 0.04575007 0.48528323
0.41776717 0.89887786 0.52826166
0.22413954 0.72310591 0.85270607
0.27740115 0.67697895 0.062081899
0.23671558 0.78908157 0.14784618
0.22893363 0.43166223 0.74337745
0.42267343 0.83471245 0.98278689
0.16095732 0.83275878 0.8616634
0.12291162 0.15553156 0.90102947
0.050320536 0.065844424 0.48860914
0.077079356 0.058574323 0.53435922
0.31972095 0.89410865 0.43323708
0.083851784 0.34238777 0.15634297
0.010204812 0.89719003 0.83332193
0.041245762 0.37062123 0.6224035
0.11516885 0.82848853 0.054065712
0.48685756 0.6738354 0.88877815
0.47825101 0.99575007 0.72153693
0.40908268 0.24157329 0.87706852
0.35959744 0.34221438 0.94291294
0.10390201 0.49637306 0.0014872421
0.37108162 0.13581501 0.89559591
0.087700158 0.30351856 0.23798367
0.16587165 0.32392821 0.13517374
0.082532607 0.40641972 0.505795
0.39373434 0.63675743 0.33428347
0.42076719 0.61047256 0.0081188809
0.36515626 0.56697452 0.0038689268
0.22592475 0.38513994 0.24544223
0.16445899 0.10433482 0.58765662
0.13591546 0.31213886 0.08402966
0.13665907 0.054302089 0.21984467
0.084457032 0.22970241 0.52336323
0.20344886 0.56144571 0.84729147
0.27103573 0.72651094 0.25371116
0.023933226 0.51397961 0.8904686
0.19107497 0.35551399 0.5009411
0.1951344 0.085826546 0.067915648
0.19706887 0.53767604 0.45305559
0.31978998 0.86659402 0.55739039
0.11361828 0.13842493 0.86952925
0.15563311 0.41174307 0.92383134
0.26555544 0.58065712 0.15353374
0.02723706 0.98755485 0.71497947
0.45088279 0.52962637 0.44149038
0.07773836 0.57749277 0.95546997
0.022972653 0.95964271 0.31098399
0.27344322 0.34991154 0.39681053
0.30740103 0.74404931 0.93448657
0.033928823 0.38362926 0.80108058
0.31262401 0.61086583 0.93950552
0.24738863 0.92213202 0.35124859
0.2093043 0.4532429 0.93190575
0.28607118 0.50771701 0.91946059
0.14356089 0.40948257 0.44908693
0.36430606 0.56495929 0.026579745
0.34204108 0.61090463 0.98622251
0.49753305 0.15779102 0.33613405
0.1959383 0.77259308 0.080183327
0.16318159 0.84045076 0.46381259
0.06372188 0.46569878 0.074678391
0.033474639 0.96047604 0.99681044
0.20909894 0.37908465 0.4500533
0.17505179 0.95122701 0.95777035
0.13478209 0.23834878 0.36725289
0.35932556 0.96696097 0.93221217
0.37261543 0.65104306 0.54311681
0.36572668 0.64610916 0.70090783
0.033793688 0.037985783 0.47350091
0.073885351 0.36434898 0.31395167
0.30579165 0.49179274 0.77965045
0.34313086 0.55874199 0.74012649
0.34153605 0.97693986 0.11921117
0.066562705 0.32704347 0.070438169
0.04544786 0.59660763 0.30878696
0.22907431 0.31525877 0.2757479
0.1951804 0.060489625 0.92679095
0.46673879 0.79194295 0.57290012
0.3171927 0.85953033 0.61088592
0.053943176 0.0073010572 0.97523487
0.21091901 0.61888433 0.4670276
0.10074423 0.30514604 0.025769608
0.47080749 0.98821813 0.0027094823
0.030413069 0.12134353 0.32975295
0.06563215 0.21223925 0.92636061
0.22002563 0.67038786 0.24161933
0.35789958 0.060748681 0.30210897
0.32129505 0.99422628 0.094051935
0.10774511 0.62861174 0.95358229
0.41318807 0.73649806 0.96088332
0.4008055 0.15833609 0.5797677
0.13431931 0.35982457 0.88491374
0.1472041 0.30143952 0.87313187
0.14855884 0.36226568 0.99447536
0.31343532 0.49352998 0.20671465
0.27661562 0.93358123 0.87710249
0.39742526 0.64938039 0.93785119
0.048479758 0.29197049 0.93207747
0.095505729 0.50746071 0.56068921
0.072296865 0.33383685 0.2971873
0.05273854 0.13544786 0.45552337
0.3426224 0.40408647 0.81534791
0.28507924 0.69849467 0.11678746
0.22164518 0.99561238 0.47905311
0.21888287 0.62248302 0.97258312
0.3222402 0.17571422 0.90616435
0.26079145 0.97056478 0.55554467
0.22971705 0.067524292 0.84751517
0.19575578 0.25853574 0.35497591
0.47610039 0.40312949 0.68881273
0.12469403 0.50860655 0.82426059
0.35245574 0.19385134 0.22834708
0.26012969 0.76400983 0.92684174
0.31852344 0.20730017 0.92245412
0.058049984 0.6450659 0.54493713
0.044341534 0.28954628 0.72065133
0.49742368 0.81112921 0.69121611
0.27519605 0.27056327 0.75874043
0.19895364 0.66207486 0.01727614
0.3764416 0.61427563 0.42040563
0.22084798 0.86366373 0.92901218
0.13297829 0.56857514 0.12286351
0.24715182 0.088834547 0.88687336
0.2105727 0.7258814 0.094173513
0.17179975 0.84198135 0.73923945
0.44426832 0.93066442 0.02878572
0.30459398 0.92551184 0.83991492
0.15020204 0.4759039 0.11047819
0.02957223 0.87381119 0.77255303
0.038210299 0.62669438 0.38682869
0.24841312 0.068390325 0.25049239
0.21291921 0.33434689 0.81906754
0.27435094 0.82865053 0.90790206
0.21778762 0.24979594 0.63378346
0.26487437 0.59339547 0.47576484
0.1344941 0.48193207 0.40642929
0.14888695 0.091120034 0.3319411
0.068844408 0.39152411 0.807845
0.1240835 0.45066854 0.68165618
0.010360021 0.52708918 0.30835056
0.20377436 0.023915369 0.3767409
0.32902056 0.44975376 0.71108776
0.23855433 0.9984557 0.53973836
0.19250537 0.43403092 0.78953427
0.0093971128 0.96377969 0.38292971
0.24727954 0.23276787 0.86486179
0.45049417 0.53054178 0.95598179
0.11646474 0.66823059 0.34750593
0.020387245 0.91639757 0.79817444
0.36121535 0.93711764 0.32526362
0.01539063 0.34466633 0.34917897
0.20376107 0.0027074437 0.79893273
0.059304971 0.47981608 0.79738843
0.32917413 0.86482686 0.23141935
0.22394127 0.88362104 0.19519903
0.41540614 0.37818015 0.42796689
0.34783703 0.27916852 0.95850867
0.32582793 0.51209795 0.62673926
0.49958089 0.55287248 0.54313684
0.39866811 0.27530316 0.48025444
0.061299928 0.30608442 0.82492077
0.23588942 0.7136066 0.8276282
0.1353558 0.8322165 0.3074443
0.03405001 0.49056479 0.17227115
0.14975968 0.93844736 0.055892199
0.2473592 0.76925957 0.43407235
0.46134266 0.46493363 0.71324086
0.44059697 0.11658949 0.22533883
0.2539666 0.11575127 0.7782113
0.025535004 0.91308749 0.053514466
0.26566222 0.035687372 0.35959888
0.17812261 0.5074662 0.073205464
0.091936722 0.7781778 0.90542197
0.24565887 0.84627783 0.39598677
0.33179444 0.14579721 0.33443412
0.35974056 0.64051563 0.10369369
0.076776721 0.56320089 0.56862736
0.43339714 0.44439486 0.68521684
0.04606656 0.95232803 0.80096811
0.4351722 0.0033980594 0.7140556
0.46192944 0.53472251 0.74974298
0.14172889 0.89096773 0.25720918
0.17833161 0.074841179 0.035387002
0.13104261 0.56615895 0.88166481
0.329036 0.22974785 0.027462034
0.49625304 0.94922894 0.66797763
0.048099902 0.10278241 0.23117854
0.33241355 0.96957672 0.67557341
0.17502198 0.061709817 0.62790143
0.075506024 0.93205422 0.6312995
0.43253383 0.8559131 0.16602202
0.30740532 0.1393709 0.056989752
0.43600991 0.49603415 0.13183093
0.45370343 0.75811934 0.69798988
0.39453584 0.41619134 0.92773771
0.40826684 0.40869746 0.87696671
0.24225567 0.50489724 0.97974908
0.35784495 0.16972439 0.9493258
0.19563165 0.51976836 0.011035604
0.0095823724 0.67078036 0.94308984
0.32523212 0.53584802 0.79900295
0.40824315 0.1506587 0.93837386
0.43673801 0.022678539 0.43440801
0.00265348 0.93008536 0.19252735
0.35164842 0.71915704 0.60871869
0.31551728 0.53569078 0.017416164
0.25400063 0.020202124 0.52231342
0.24387518 0.735892 0.69203782
0.21853806 0.1271553 0.21180613
0.22405587 0.14632006 0.88258654
0.19560079 0.79678434 0.41843456
0.095102273 0.61327058 0.56909329
0.064289205 0.48674661 0.59177178
0.28149322 0.49205357 0.5218572
0.37775689 0.19535041 0.24101426
0.18211624 0.82638496 0.77670503
0.19082433 0.33438623 0.79690713
0.45198104 0.82213658 0.53279918
0.29799995 0.2592127 0.65995449
0.40390301 0.70732445 0.80627453
0.34519628 0.098526038 0.60305887
0.05441355 0.28873059 0.21632944
0.33896017 0.41730899 0.70307606
0.13484609 0.98029542 0.19512963
0.39577469 0.73580921 0.39048004
0.01628181 0.10004169 0.21686502
0.40463433 0.48169035 0.55125123
0.30308789 0.38565239 0.37338784
0.069487482 0.98165226 0.63260055
0.39946473 0.78945827 0.33992502
0.30260199 0.47985083 0.43845105
0.10413142 0.58867794 0.72718161
0.21229613 0.26659828 0.14449063
0.063834161 0.53629047 0.12478605
0.16139898 0.32783982 0.86059523
0.356639 0.36040345 0.96063691
0.4650715 0.1696721 0.44232726
0.24069713 0.77584791 0.82797968
0.42739105 0.91482288 0.80963194
0.24369133 0.71375233 0.59909022
0.41365382 0.31895629 0.078941055
0.13287935 0.52721912 0.66761899
0.49647015 0.95181137 0.93421727
0.068715475 0.079479709 0.47050771
0.13110851 0.40227765 0.79834753
0.061406124 0.11555564 0.15875101
0.041724592 0.045698643 0.32842311
0.26288822 0.52709293 0.104271
0.17687806 0.38187501 0.019093869
0.081694044 0.86925763 0.7328462
0.38123918 0.69656533 0.051802471
0.4207097 0.96232402 0.57902157
0.25451919 0.95526433 0.53083301
0.22162782 0.092695288 0.6103127
0.45688167 0.35491228 0.012590347
0.35605544 0.47772455 0.12814599
0.43543094 0.56117374 0.17384464
0.099642508 0.086950183 0.70093751
0.15177801 0.44070631 0.08281254
0.16132495 0.60409439 0.95207018
0.027748035 0.36657274 0.64863551
0.053649269 0.20799212 0.61095953
0.34316006 0.71703047 0.56622386
0.10857656 0.16028611 0.65891916
0.41373292 0.074049458 0.013831427
0.42002809 0.78616035 0.49155596
0.48410109 0.65702224 0.052729696
0.07102339 0.85630727 0.13967988
0.42149216 0.15986329 0.58038616
0.46289843 0.48251319 0.18448059
0.43893352 0.53800923 0.55105335
0.26325127 0.64530778 0.75904548
0.068731025 0.33162794 0.47607595
0.35184294 0.54878104 0.63636208
0.18130252 0.37624687 0.71041155
0.18821824 0.21630302 0.49657187
0.4339962 0.18450516 0.15359414
0.46036106 0.32655194 0.0099014118
0.030200999 0.16953625 0.16976471
0.3203941 0.095333099 0.65227789
0.4126344 0.97320014 0.19028714
0.18816106 0.49970266 0.83559495
0.067683801 0.63716471 0.16722287
0.30572179 0.34085062 0.71600389
0.12390281 0.70345563 0.092250772
0.47910857 0.079892114 0.30855379
0.22739451 0.94788456 0.49305895
0.30419159 0.86860669 0.81961089
0.30914229 0.92900866 0.98914713
0.39402464 0.56979686 0.084480233
0.22016358 0.39506564 0.057680372
0.31530717 0.77138776 0.55738306
0.23310463 0.90675539 0.19454777
0.31671607 0.51819891 0.53539842
0.17471802 0.76600456 0.23885405
0.2208434 0.72422171 0.31874618
0.37512031 0.17901072 0.26663071
0.12164978 0.78739387 0.13523738
0.031455223 0.40567845 0.064246044
0.026028793 0.19372773 0.63404292
0.06826891 0.6340549 0.029108552
0.097109094 0.26466921 0.80049634
0.37580061 0.73087847 0.70725173
0.4730745 0.36431059 0.22545065
0.24077371 0.71374661 0.9914552
0.36020073 0.15543343 0.7156769
0.019573819 0.90567404 0.89468765
0.15288918 0.1489736 0.68208152
0.22050786 0.21188404 0.087759972
0.25263089 0.26394162 0.2814877
0.069652334 0.40047947 0.9155426
0.084206611 0.59469765 0.18021181
0.48445478 0.3462989 0.91109025
0.33808064 0.29244792 0.27540085
0.45080596 0.77399534 0.98914748
0.44653356 0.49439681 0.14458092
0.30437201 0.53354442 0.050254945
0.25171584 0.83932281 0.19922854
0.092756599 0.28033853 0.41111258
0.13663658 0.7856003 0.67505419
0.27738044 0.92490494 0.075533658
0.23515174 0.093318187 0.67023128
0.32525763 0.062227745 0.016530201
0.28080279 0.73838902 0.30897811
0.4185032 0.64000094 0.082973443
0.41307694 0.53306806 0.57737023
0.48536739 0.14181209 0.11091469
0.010494865 0.64524376 0.95023745
0.11010914 0.83075696 0.23057599
0.31566542 0.10403012 0.016176283
0.15319254 0.65879101 0.94108123
0.19095936 0.12909444 0.034399427
0.026075017 0.77960974 0.096627176
0.034340117 0.34121525 0.83501619
0.18882917 0.17822166 0.4750171
0.23031589 0.0043755397 0.0080851661
0.019001016 0.97511035 0.14989725
0.074458361 0.99610007 0.79514104
0.049577102 0.21631832 0.62589794
0.16486511 0.84764916 0.72992808
0.17295325 0.15403424 0.38871905
0.14349386 0.53595299 0.5178135
0.16069357 0.588103 0.29742321
0.20900716 0.65678322 0.6386385
0.12651525 0.034441575 0.81686014
0.3640238 0.49507338 0.82123566
0.3680664 0.53307539 0.79634601
0.44301501 0.68199211 0.79244608
0.34058553 0.78114635 0.0087643908
0.15353452 0.11087652 0.85641354
0.018498551 0.456783 0.010447815
0.21285808 0.74377072 0.54640079
0.47176483 0.06515789 0.13450378
0.12047643 0.48317221 0.791287
0.43979567 0.73620272 0.8257286
0.34822574 0.46425036 0.32080194
0.25884357 0.20038314 0.85387737
0.15701658 0.086413197 0.53586948
0.053239606 0.76758426 0.3170158
0.057621799 0.074653275 0.4278923
0.48582858 0.11165038 0.88467532
0.49105251 0.53736651 0.62844604
0.26425287 0.4808962 0.69360393
0.33150476 0.72184908 0.17677616
0.22714828 0.60144043 0.91297889
0.14001258 0.29789189 0.37722924
0.30041355 0.815579 0.5776124
0.22735222 0.12961218 0.6640256
0.49528694 0.23609139 0.43160984
0.15379484 0.35133499 0.50626314
0.36774099 0.32299218 0.61791348
0.31007865 0.30509716 0.15528002
0.12430169 0.83360291 0.63617623
0.47110364 0.49661246 0.35802528
0.059491724 0.95090902 0.95946568
0.015981164 0.23093417 0.25735754
0.20459577 0.83176124 0.072936572
0.49340197 0.2864657 0.20254876
0.32541475 0.27703959 0.43864015
0.041219674 0.5846293 0.78997511
0.29435122 0.32011127 0.1129673
0.10330797 0.94026864 0.41806445
0.18094797 0.18887198 0.25166738
0.49903607 0.13107927 0.74827987
0.17804871 0.25006273 0.69918889
0.15778156 0.28202507 0.93012303
0.28646034 0.69121665 0.76188433
0.32292861 0.67802054 0.048350003
0.42420298 0.32885009 0.32538959
0.14352307 0.41128942 0.91001886
0.038510624 0.99999189 0.23013017
0.094994277 0.20660783 0.17039877
0.30402651 0.5685038 0.35927075
0.42986017 0.56657594 0.49035004
0.30400011 0.9226734 0.74041277
0.15359455 0.23823653 0.022437807
0.11865608 0.81115717 0.7136544
0.49959823 0.45701441 0.391675
0.023773232 0.3054204 0.72052509
0.18646803 0.59246653 0.13181451
0.14147747 0.66948777 0.1318064
0.25654256 0.85947633 0.33841425
0.34174195 0.46752933 0.90691805
0.021377318 0.32724971 0.47349402
0.26655233 0.93524992 0.39616743
0.1367587 0.24243902 0.63440394
0.14797761 0.47975117 0.44556114
0.0048048222 0.47894764 0.90257555
0.20064232 0.52649409 0.20799595
0.060904853 0.89943016 0.80046248
0.12681212 0.1823851 0.46995026
0.19271532 0.69547021 0.32942656
0.36192244 0.37895411 0.79695588
0.31538147 0.42170873 0.12420557
0.052128464 0.95481342 0.059455492
0.25021219 0.22833082 0.30189452
0.067414157 0.52428603 0.78164572
0.29019472 0.53389567 0.26059332
0.24148251 0.93518031 0.78708744
0.3454805 0.05699002 0.6865176
0.24571173 0.31061423 0.86890268
0.48068684 0.69604486 0.5643729
0.14540014 0.41988972 0.94332701
0.043878071 0.050652634 0.36503577
0.10598086 0.15490957 0.31984916
0.1357086 0.65533394 0.54817998
0.28665587 0.79016227 0.072466023
0.1774787 0.37055171 0.60636169
0.30777538 0.8535167 0.54154199
0.20131908 0.5444777 0.59853202
0.044577878 0.035901148 0.90914625
0.47902924 0.99727488 0.60519111
0.26121569 0.28807512 0.025080854
0.23287921 0.37583125 0.07573349
0.41539708 0.58779293 0.23064305
0.075321674 0.85921013 0.88597697
0.34941167 0.43252188 0.67613924
0.38564467 0.78747928 0.046690907
0.18882553 0.40303001 0.90020764
0.45959654 0.80566818 0.44468531
0.25886256 0.89482397 0.48058647
0.21343569 0.85288239 0.47786132
0.016031262 0.37531379 0.76593643
0.028571688 0.8410722 0.14176767
0.066438429 0.67186636 0.72956061
0.18175995 0.82250971 0.58877081
0.12474844 0.52133304 0.021292666
0.46281806 0.29262242 0.80877197
0.4861635 0.67027348 0.21180198
0.43626732 0.58946657 0.017470151
0.15860997 0.1071917 0.91229409
0.39890319 0.5340631 0.76517648
0.13783386 0.56612563 0.14049026
0.020802073 0.62326896 0.98156244
0.091685906 0.75614583 0.65342879
0.45646623 0.11966576 0.47593853
0.2508516 0.36916265 0.9972716
0.26149794 0.29479873 0.28989398
0.16588393 0.26712573 0.96016747
0.2717849 0.13966036 0.54963404
0.28051999 0.4568803 0.65682572
0.23666702 0.25468671 0.19088884
0.11925527 0.53035444 0.75701445
0.18950041 0.5719586 0.38028342
0.18028162 0.75533038 0.13642927
0.0069960346 0.66826284 0.25609502
0.2449653 0.16996606 0.62525767
0.24360108 0.69296193 0.9200564
0.38854808 0.024729792 0.18718214
0.36863181 0.56829959 0.32684249
0.14344884 0.12933956 0.78372282
0.47186172 0.60267365 0.038409509
0.067306139 0.84118414 0.56876397
0.44581336 0.22018498 0.14072253
0.13595507 0.58074826 0.8960529
0.20416971 0.59474033 0.56431574
0.33221722 0.084670894 0.73428184
0.14484605 0.57187307 0.42724377
0.10487426 0.34896922 0.45197356
0.19846533 0.086232856 0.020273156
0.36188659 0.37313056 0.14961272
0.25374797 0.316854 0.75228631
0.27295274 0.45146626 0.59347051
0.05733471 0.34309298 0.8136555
0.12769598 0.61500311 0.39440373
0.075722434 0.023342544 0.98914403
0.35788029 0.68777698 0.073814929
0.22502121 0.97746909 0.645688
0.4386431 0.18721762 0.99465722
0.16462988 0.58414829 0.080890052
0.17476645 0.30792147 0.45402059
0.24957281 0.81541741 0.77087462
0.12571599 0.36132288 0.22234087
0.42245123 0.47599232 0.56543386
0.32927898 0.73138428 0.18043698
0.026480842 0.88282913 0.20377953
0.021052858 0.59858972 0.8915565
0.05796032 0.048632167 0.86902559
0.3808043 0.92591834 0.056243233
0.37813291 0.25517809 0.64039153
0.41857794 0.604711 0.948313
0.14558825 0.10385662 0.76373041
0.031025538 0.35528859 0.12505329
0.14219597 0.20019107 0.60104561
0.4249129 0.85874903 0.33242986
0.015131391 0.91171074 0.21525897
0.11702116 0.95381641 0.81384873
0.062799416 0.069737069 0.86248088
0.49731222 0.83134568 0.78839922
0.025433838 0.58761156 0.043577343
0.3456296 0.4247674 0.64828837
0.3197861 0.71594393 0.75214499
0.20165129 0.77799499 0.10743356
0.26417795 0.062386923 0.30762464
0.064700738 0.91221273 0.16637367
0.23091567 0.9424755 0.078084379
0.33854514 0.17651781 0.031900808
0.24546951 0.30211663 0.10163788
0.17670995 0.29674107 0.93298358
0.070909567 0.34760875 0.52059513
0.092698239 0.038867958 0.94536251
0.4168424 0.67844015 0.66130644
0.2929149 0.081742719 0.43930143
0.34663168 0.6100986 0.50168836
0.00044399686 0.73950005 0.41390106
0.08363083 0.20133139 0.35637656
0.12267302 0.87842166 0.53289437
0.13862342 0.36936072 0.83501101
0.18944237 0.72278059 0.13175209
0.15593415 0.8645997 0.47936085
0.41623172 0.049996208 0.51822883
0.38891298 0.88368106 0.19666894
0.21956621 0.46951082 0.27841166
0.43921691 0.16277419 0.88851023
0.19006109 0.16366218 0.62801033
0.39701164 0.33092383 0.82934171
0.07519991 0.57626987 0.70776337
0.34164709 0.8535167 0.077124082
0.25915259 0.23240145 0.7999047
0.32502866 0.54426974 0.66450441
0.064709075 0.37673318 0.71450061
0.32382348 0.15455917 0.59818166
0.42215794 0.59369159 0.067692481
0.061363783 0.47212541 0.23046666
0.0056189047 0.8522476 0.39412883
0.31962407 0.64627087 0.72505265
0.23429491 0.79667068 0.30132255
0.088176593 0.47996485 0.15483928
0.12673864 0.99827009 0.38724074
0.026690977 0.64832735 0.93151051
0.35894319 0.77774554 0.30824369
0.2161935 0.42539248 0.46280286
0.015284328 0.2697084 0.056494441
0.049130566 0.39243597 0.52861989
0.16436391 0.40367377 0.38086745
0.36142832 0.042921882 0.02713831
0.22395466 0.51151168 0.82380897
0.37461594 0.68786484 0.30377385
0.45203558 0.94134212 0.30204391
0.14565594 0.99472409 0.95037127
0.11141118 0.71261048 0.72811681
0.26553303 0.14499745 0.15350929
0.49693447 0.17556611 0.42321768
0.025181681 0.27382725 0.81565362
0.28949162 0.60255504 0.21932742
0.47992533 0.32541168 0.26224929
0.49349448 0.77332103 0.77376097
0.40539899 0.52255291 0.46162584
0.057285905 0.42662403 0.40296799
0.20830786 0.71793592 0.39769205
0.18349349 0.94075829 0.11030252
0.047551904 0.47182435 0.25529999
0.12430655 0.46569327 0.43086609
0.33591539 0.51605666 0.70469332
0.24374221 0.095039859 0.30724838
0.35340592 0.054890539 0.63266009
0.48453057 0.041879527 0.40598109
0.37141106 0.85267752 0.92853397
0.10222398 0.96724927 0.355158
0.30370799 0.38386503 0.073093936
0.0025540118 0.75085199 0.013852227
0.057705272 0.84595585 0.48567659
0.18535526 0.094568923 0.95136988
0.40078831 0.76639974 0.46742651
0.25313497 0.25388414 0.56246638
0.40675917 0.96069598 0.6173569
0.22308919 0.92975718 0.65923643
0.42607972 0.67257929 0.51191396
0.39034671 0.87702727 0.47916323
0.067925729 0.48444322 0.86302823
0.1044727 0.48955125 0.61388028
0.11139881 0.60496181 0.45983607
0.35423711 0.9756723 0.55440497
0.32992202 0.77724892 0.32080472
0.063635275 0.28351888 0.57468885
0.34486845 0.097037181 0.53538489
0.15354691 0.54321557 0.46514201
0.48316512 0.39537504 0.1377213
0.23912209 0.17606848 0.014748568
0.47870371 0.31191993 0.49919179
0.41021782 0.52086532 0.98874301
0.21715795 0.74366295 0.59370482
0.44707599 0.45213714 0.56937712
0.22427849 0.11198119 0.34662604
0.38468084 0.23925175 0.63014489
0.17202528 0.92898864 0.72718209
0.43971771 0.23608248 0.27039766
0.17228872 0.20241272 0.66577274
0.24114938 0.68065691 0.84184122
0.24852367 0.63806432 0.15376112
0.49811956 0.45849994 0.67462647
0.49249107 0.89281583 0.41828939
0.28934348 0.78696781 0.87042654
0.074032038 0.2355248 0.98240769
0.24734508 0.0048865001 0.22165945
0.06241753 0.34893706 0.15064812
0.42600858 0.22837248 0.38673058
0.061207421 0.57294995 0.58914334
0.39409378 0.055248678 0.26980022
0.31501436 0.55229598 0.90786451
0.39189494 0.54853511 0.36636445
0.22920816 0.53351724 0.25918031
0.43835285 0.1122042 0.046148133
0.37356612 0.26026827 0.28167295
0.36476997 0.75495839 0.28655943
0.47559971 0.87979347 0.6354965
0.05092375 0.73181063 0.86386895
0.24428904 0.85422546 0.4368189
0.038860701 0.64241302 0.49206758
0.1737608 0.27244177 0.044363581
0.12769307 0.056231655 0.59289867
0.3108753 0.51464796 0.12641594
0.44046545 0.39135367 0.23862013
0.46353951 0.13848591 0.4988884
0.10437598 0.86802584 0.25384682
0.2476557 0.81922525 0.1336403
0.065403953 0.92107272 0.86545092
0.49733844 0.4096508 0.71967643
0.21574789 0.48737222 0.36208946
0.46178168 0.83489382 0.63453126
0.48396346 0.090279959 0.69076288
0.28041282 0.71203053 0.20541085
0.34362078 0.59296143 0.59676456
0.46293086 0.52004045 0.73525047
0.21237506 0.72879243 0.60327625
0.33929846 0.22410384 0.4225015
0.40611863 0.35491174 0.34357423
0.33884409 0.34958863 0.75322503
0.19868231 0.78108442 0.24059725
0.37972704 0.70464778 0.075491086
0.19699265 0.6725747 0.16577105
0.042374089 0.23340034 0.8778016
0.14507952 0.9206419 0.47076303
0.44346178 0.84650362 0.99080348
0.31108701 0.27125371 0.71959591
0.11272515 0.94985068 0.94369978
0.32397589 0.76208788 0.29861152
0.495763 0.43977609 0.64820015
0.37237555 0.83714068 0.42928454
0.49267417 0.59659475 0.13393232
0.030419707 0.99058008 0.80650705
0.11330523 0.075328231 0.03990737
0.052206025 0.36548728 0.96054929
0.28758755 0.25241083 0.80705285
0.28298929 0.87458485 0.078306578
0.14278725 0.10003516 0.02815723
0.11463714 0.74798697 0.79024512
0.2639429 0.73951298 0.23002122
0.088042967 0.48426408 0.067161925
0.30268523 0.46961239 0.66375667
0.36965141 0.53045183 0.65433675
0.27290493 0.75706226 0.72966498
0.2928586 0.86147434 0.095152251
0.27313325 0.43664941 0.34756309
0.17665967 0.0026279958 0.22214796
0.21581297 0.28820249 0.3221831
0.22989158 0.5174768 0.070170075
0.12501414 0.045362577 0.80968308
0.24002476 0.22144851 0.29394713
0.2736057 0.826819 0.76355952
0.10548406 0.56612182 0.29401135
0.43265244 0.11193166 0.051073641
0.29748493 0.69764888 0.91254795
0.34506106 0.24391535 0.34919739
0.018842602 0.59723473 0.35182539
0.12991658 0.028860638 0.64002788
0.29100814 0.4886438 0.15750468
0.32609317 0.73867208 0.20286725
0.23093471 0.2187216 0.42431575
0.37790829 0.76593304 0.25113478
0.25968805 0.97690117 0.81725657
0.40669373 0.84220606 0.92918825
0.43223056 0.4371759 0.62683713
0.38850453 0.12729801 0.87075245
0.063103236 0.16498321 0.46798718
0.23901592 0.42481637 0.49684784
0.059029873 0.0068326415 0.98549163
0.13778222 0.65901899 0.72416371
0.23921584 0.12088839 0.94288534
0.45137373 0.87670493 0.70881838
0.076941103 0.39608106 0.68571955
0.48556939 0.20946851 0.52792555
0.45016351 0.07392963 0.96510148
0.26358208 0.85093874 0.092399485
0.19895832 0.9771452 0.25738269
0.43295193 0.45517704 0.68219906
0.18137583 0.57323676 0.68903172
0.17412165 0.8488012 0.34805071
0.036203496 0.32723287 0.4689391
0.0076461555 0.2299803 0.34564403
0.36205533 0.3838625 0.74172509
0.20491509 0.3550013 0.95119363
0.46887788 0.25532836 0.025123239
0.45142862 0.78249252 0.87606198
0.49762836 0.18040916 0.85320711
0.12631971 0.046312992 0.30838418
0.46741924 0.40906465 0.88162094
0.3119351 0.75730795 0.73042214
0.48596045 0.82971495 0.057655036
0.22043 0.84500724 0.28763533
0.39325202 0.5691179 0.67149782
0.26411459 0.97894812 0.026499156
0.23971137 0.91670382 0.28182751
0.25227299 0.81956106 0.064320013
0.19030397 0.81481779 0.24472918
0.11690754 0.067457199 0.29104218
0.27109963 0.0022956957 0.7001068
0.21191011 0.62616593 0.45741475
0.077121191 0.59808683 0.28712967
0.10594871 0.038946856 0.13213691
0.24976638 0.8254509 0.70125484
0.085515305 0.35368007 0.6802029
0.098764881 0.83310282 0.59690678
0.23967864 0.33764881 0.41646782
0.27183864 0.71825677 0.23128562
0.39420322 0.95207185 0.2987428
0.039724313 0.4942711 0.3010385
0.38977772 0.9180913 0.92720443
0.11848509 0.072333694 0.52529126
0.26204994 0.2842311 0.56423813
0.32811838 0.78376389 0.38968903
0.17874581 0.95479447 0.7433691
0.018847255 0.15232424 0.57647192
0.31730065 0.6316815 0.91412073
0.025534548 0.17535879 0.63237751
0.14117736 0.96376526 0.58444935
0.29054877 0.04321387 0.078720421
0.44106802 0.82276928 0.99681175
0.40467021 0.059739508 0.069145434
0.16731586 0.58383936 0.35337654
0.44943491 0.24007615 0.13714041
0.14427942 0.59756774 0.091934882
0.015963968 0.63526225 0.24425912
0.30419993 0.26986355 0.87594062
0.26126027 0.32093263 0.051299412
0.077449024 0.60328734 0.015064657
0.3696737 0.18438485 0.058278527
0.40903389 0.066520885 0.88104784
0.40743977 0.87586135 0.94078737
0.44201249 0.21049303 0.52462673
0.11870075 0.10936286 0.76470286
0.18727095 0.39792171 0.36227065
0.2332384 0.42984962 0.9975329
0.35536796 0.038249478 0.26739645
0.29333827 0.56077003 0.58832908
0.31898797 0.71566808 0.19161645
0.32652029 0.45501545 0.3760013
0.35565957 0.27308327 0.44252217
0.2961835 0.087962784 0.31838351
0.26657715 0.97198772 0.52887654
0.028890522 0.20938925 0.63823938
0.41124198 0.58393115 0.036161102
0.09237729 0.050407954 0.46601075
0.09114375 0.76114386 0.50426024
0.22484198 0.3478204 0.065030254
0.019006532 0.98579633 0.78069836
0.11481475 0.63883698 0.23571379
0.30281541 0.3501561 0.50879705
0.024076492 0.94252306 0.59675986
0.18326825 0.4756774 0.56874758
0.44770652 0.53345841 0.77813685
0.26682621 0.35594237 0.362068
0.28490677 0.54069692 0.41247594
0.017912146 0.72298443 0.17361982
0.27004224 0.17266841 0.52144021
0.30255738 0.21068147 0.5072366
0.19290654 0.44031098 0.14607355
0.31076345 0.045941774 0.49622965
0.065161981 0.094094761 0.43875271
0.3635419 0.46063125 0.91443008
0.14791569 0.35604429 0.44788855
0.036984116 0.88969678 0.80383092
0.21801811 0.4595103 0.34452784
0.42425609 0.4953346 0.067512296
0.011066006 0.035419092 0.2401807
0.27178612 0.64053386 0.45086217
0.025404412 0.026346952 0.89117312
0.098441184 0.64787388 0.93711489
0.34655601 0.77819782 0.031209681
0.065932371 0.50528163 0.49184093
0.023147423 0.80111301 0.84788525
0.2470917 0.87508124 0.73758197
0.14900716 0.31111747 0.19709229
0.32127106 0.15962967 0.69242686
0.35502723 0.18176168 0.72784597
0.47511756 0.72533393 0.36837983
0.20054866 0.77614278 0.39472678
0.14613524 0.97302514 0.042600628
0.1146927 0.66613716 0.82079846
0.13029754 0.79800189 0.32608005
0.37621802 0.84429675 0.12719306
0.30016062 0.33848011 0.0022743144
0.16895162 0.6364944 0.3133918
0.26749778 0.27903658 0.47302148
0.1137112 0.98909104 0.65478319
0.47763419 0.93932617 0.38011709
0.16182411 0.34042349 0.15625985
0.35918748 0.63269401 0.12928498
0.3804878 0.86207938 0.79542214
0.29088703 0.12267447 0.59342402
0.45392704 0.87511051 0.43772075
0.017523589 0.47543174 0.77620083
0.018660747 0.813335 0.41269526
0.17535664 0.34833053 0.69173181
0.41186738 0.57575291 0.68082285
0.23925896 0.5310213 0.62014902
0.4293175 0.85466951 0.96057254
0.0074474318 0.57304448 0.59326655
0.072089918 0.33402008 0.4553459
0.46980098 0.91579413 0.57802039
0.26651299 0.82364821 0.45313087
0.48537335 0.85869539 0.92856258
0.37347376 0.8960169 0.74189758
0.079821415 0.24673019 0.090228103
0.42568734 0.070464961 0.66598099
0.26609877 0.54898286 0.19700232
0.076173283 0.4076179 0.051671825
0.05645955 0.42251277 0.62471628
0.35309282 0.56669259 0.95873636
0.080765769 0.50629455 0.87453049
0.36977595 0.039320532 0.69817877
0.096341386 0.010067234 0.55687416
0.060622692 0.75701481 0.45289108
0.43157148 0.91665763 0.69962126
0.47668552 0.76803225 0.77008623
0.30967605 0.30022979 0.31906912
0.4081772 0.45257637 0.72668701
0.43401313 0.56549549 0.14919978
0.24637127 0.2716811 0.71589237
0.22573946 0.43321264 0.22218695
0.16300473 0.17276455 0.26150748
0.012094101 0.36544734 0.27157474
0.29053119 0.48669273 0.028589509
0.016976727 0.34983569 0.94524711
